ply
format ascii 1.0
element vertex 766
comment vertices
property float x
property float y
property float z
end_header
-0.289434731006622314 0.874365508556365967 -0.332511544227600098
-1.4423830509185791 2.29006195068359375 0.583303213119506836
0.710583269596099854 1.08385884761810303 -0.27350229024887085
0.466661959886550903 4.70529842376708984 0.741391301155090332
-2.94337677955627441 3.78969311714172363 1.40526115894317627
0.848176062107086182 1.25909888744354248 -0.147673875093460083
0.473036199808120728 1.45160806179046631 -0.727442026138305664
0.767785549163818359 3.25734925270080566 -0.289423823356628418
0.673217654228210449 1.69150209426879883 -0.334655255079269409
0.686769783496856689 1.08593833446502686 -0.392386168241500854
0.359258204698562622 0.939130127429962158 -0.524029016494750977
0.021844988688826561 0.678402304649353027 -0.333537042140960693
0.290643036365509033 3.47153925895690918 1.27906060218811035
0.200504735112190247 0.899816691875457764 -0.340058296918869019
-0.42435002326965332 0.620447754859924316 -0.344736039638519287
-0.247326716780662537 2.11011028289794922 1.18242859840393066
-0.246649503707885742 2.25287365913391113 1.198372483253479
-0.04106130450963974 0.625083506107330322 -0.251042008399963379
-0.68240201473236084 1.50086319446563721 -0.435628056526184082
-1.1568150520324707 2.35729789733886719 1.0863574743270874
1.50570762157440186 2.06903433799743652 -0.664271533489227295
-0.222813412547111511 0.689196586608886719 -0.324147194623947144
0.555961370468139648 3.06126570701599121 0.0108800511807203293
0.487094879150390625 1.54355812072753906 -0.404132634401321411
-0.563564002513885498 1.71584701538085938 -0.48176535964012146
2.06406474113464355 2.69328212738037109 0.89021456241607666
0.962070941925048828 4.52687644958496094 1.29248154163360596
0.797900974750518799 1.37967932224273682 -0.315459877252578735
-0.0717227011919021606 2.42105317115783691 -0.329845696687698364
0.870256483554840088 2.85085034370422363 1.20573341846466064
0.964379847049713135 1.43160080909729004 -0.659751236438751221
-0.000914831412956118584 0.710258722305297852 -0.33573615550994873
1.70849299430847168 3.69482827186584473 1.09869372844696045
-0.111053198575973511 0.888863027095794678 -0.344343006610870361
2.01394963264465332 2.80717134475708008 1.0010230541229248
-0.208864152431488037 2.22134757041931152 -0.539484620094299316
0.920585811138153076 1.21759176254272461 -0.62747955322265625
0.664846897125244141 1.13945960998535156 -0.414425045251846313
-0.109376050531864166 0.602252542972564697 -0.321783542633056641
-0.194757714867591858 2.7492072582244873 1.24091231822967529
-0.790885686874389648 1.22560775279998779 -0.347022831439971924
-0.15926709771156311 2.33305907249450684 -0.223882108926773071
0.0505119934678077698 0.768953084945678711 -0.33979526162147522
0.0752897486090660095 0.671880602836608887 -0.331922590732574463
0.418840616941452026 2.92955279350280762 -0.149237662553787231
1.4489208459854126 3.33803033828735352 0.415229529142379761
-0.836174547672271729 1.07660186290740967 -0.235958442091941833
0.532123804092407227 3.01555752754211426 -0.560887753963470459
-1.46445941925048828 1.84874808788299561 0.755623519420623779
0.53490912914276123 1.45717144012451172 -0.39877811074256897
-1.13099205493927002 2.86020159721374512 0.775962591171264648
-0.695901155471801758 1.30819666385650635 -0.636976659297943115
-0.801826298236846924 3.36499238014221191 1.08831691741943359
0.343675315380096436 0.874830663204193115 -0.326469957828521729
-1.10451483726501465 2.98789381980895996 0.598219454288482666
0.518540143966674805 2.4399106502532959 1.19958400726318359
0.227897748351097107 2.72208809852600098 0.0548226162791252136
-0.676361441612243652 1.59609401226043701 -0.134253457188606262
-0.70002514123916626 1.52237248420715332 -0.265122711658477783
-0.42861589789390564 0.626684963703155518 -0.27098846435546875
0.838373780250549316 3.71941924095153809 1.26463639736175537
-1.34081602096557617 2.42653989791870117 0.986030161380767822
0.599501967430114746 3.30101132392883301 0.39498177170753479
-1.36992824077606201 2.45632266998291016 0.806072056293487549
-0.548191547393798828 1.70926129817962646 -0.569014668464660645
1.3147432804107666 3.60686612129211426 0.29484093189239502
-0.174284130334854126 0.641284763813018799 -0.321366012096405029
0.105313852429389954 2.81944108009338379 1.24589228630065918
-0.476049602031707764 1.87612378597259521 0.0777925848960876465
2.60117816925048828 3.32703161239624023 -0.642470479011535645
-1.25714361667633057 1.99595856666564941 1.05225300788879395
-0.16350749135017395 2.59069991111755371 1.23075079917907715
-0.754507184028625488 1.12868177890777588 -0.589683234691619873
0.637201547622680664 4.53864097595214844 1.3065943717956543
-0.703126668930053711 1.54644465446472168 -0.0201528146862983704
0.776087701320648193 3.36614871025085449 1.24820601940155029
1.1869204044342041 3.47737264633178711 1.22353482246398926
-0.74870908260345459 1.40068507194519043 -0.267162203788757324
0.408263295888900757 1.33741903305053711 -0.720920801162719727
0.467321306467056274 3.21079540252685547 1.25906825065612793
0.715852558612823486 1.10054481029510498 -0.415917366743087769
-1.51600503921508789 1.87122273445129395 0.543125569820404053
1.451882004737854 2.33377885818481445 1.07551860809326172
-0.820939958095550537 1.21402490139007568 -0.0848571136593818665
1.4697120189666748 3.32669997215270996 1.18628430366516113
3.0783543586730957 3.9373626708984375 0.144602492451667786
-0.238348796963691711 0.725685238838195801 -0.325833827257156372
-0.280057162046432495 2.19627618789672852 -0.137902289628982544
0.117125056684017181 1.21245062351226807 -0.351915806531906128
-0.773656010627746582 1.29172611236572266 0.0627426654100418091
-0.340026706457138062 0.838065505027770996 -0.324664175510406494
0.266898900270462036 2.91852855682373047 1.24818742275238037
-0.2194785475730896 0.847757279872894287 -0.336453437805175781
2.64409518241882324 4.13043880462646484 0.973773479461669922
-0.626816749572753906 1.22581684589385986 -0.681094050407409668
0.637619554996490479 2.10653781890869141 1.15047943592071533
-1.01405775547027588 3.13663840293884277 1.11850929260253906
-1.46281158924102783 1.9614865779876709 0.959718883037567139
-0.865421056747436523 2.08017754554748535 1.12622535228729248
0.68110203742980957 1.45673668384552002 -0.322724044322967529
-0.764855921268463135 1.31086194515228271 -0.361844122409820557
-0.788311898708343506 1.21676194667816162 0.0908144190907478333
-0.766867518424987793 2.39109301567077637 1.1755828857421875
-0.574538886547088623 1.67064309120178223 -0.548241734504699707
1.28802621364593506 1.68634140491485596 -0.64928823709487915
0.990723788738250732 1.90863573551177979 1.07857441902160645
-0.409645497798919678 0.570990025997161865 -0.314550310373306274
1.66867387294769287 3.24693870544433594 1.15784180164337158
1.62373733520507812 2.18481898307800293 1.02240085601806641
0.0290641766041517258 2.50721192359924316 -0.507920563220977783
0.593409121036529541 2.54537129402160645 1.2031857967376709
2.93396162986755371 4.04595947265625 -0.148590788245201111
-0.802329361438751221 1.1599891185760498 0.0755831971764564514
0.374821275472640991 2.8252866268157959 0.110454931855201721
0.634199202060699463 4.78039693832397461 1.19496476650238037
0.871806979179382324 1.67954170703887939 -0.240760266780853271
0.0732933655381202698 0.625314891338348389 -0.328179270029067993
1.85288155078887939 3.60537362098693848 0.508283376693725586
-1.0897071361541748 2.23226666450500488 1.11865222454071045
0.493752896785736084 3.27641797065734863 0.298881262540817261
1.43258917331695557 3.42226624488830566 0.101359032094478607
0.132813721895217896 1.06303286552429199 -0.348847091197967529
-0.659667313098907471 1.58561575412750244 -0.351275771856307983
0.0294764414429664612 2.54277563095092773 0.0150621412321925163
0.545617341995239258 1.7432408332824707 -0.320108890533447266
-1.07949113845825195 3.09261083602905273 0.956256568431854248
0.190514996647834778 2.68931698799133301 -0.379138261079788208
0.637456178665161133 1.82623445987701416 -0.231498926877975464
-0.739690005779266357 1.3386528491973877 -0.44881051778793335
0.164170399308204651 1.00361382961273193 -0.345993787050247192
-0.363348126411437988 0.772868454456329346 -0.315888136625289917
2.81512904167175293 4.10059261322021484 0.510087370872497559
-0.648938953876495361 1.59944307804107666 -0.377077400684356689
-0.446298331022262573 1.979988694190979 -0.100864842534065247
-0.74230039119720459 1.30682241916656494 -0.481488198041915894
-0.848188281059265137 1.03054487705230713 -0.174586877226829529
1.36409091949462891 3.5419924259185791 0.138474628329277039
0.0937975123524665833 4.28368902206420898 0.989603400230407715
0.0562850162386894226 0.633314192295074463 -0.329376339912414551
-2.70511293411254883 3.83949041366577148 1.71483993530273438
0.168751999735832214 2.67379641532897949 -0.307261914014816284
2.51759886741638184 4.31483125686645508 -0.20958314836025238
-0.658962666988372803 1.63452661037445068 -0.0793934166431427002
-0.468929916620254517 1.9468919038772583 -0.103791795670986176
0.26435387134552002 1.0110325813293457 -0.341364741325378418
-1.20867455005645752 2.76812171936035156 1.05268609523773193
0.72155076265335083 1.41822552680969238 -0.317552655935287476
1.86185026168823242 3.51704907417297363 0.712497234344482422
0.163296103477478027 4.37172985076904297 0.93743366003036499
2.12650179862976074 2.60817980766296387 0.590173304080963135
0.0523113198578357697 0.665796279907226562 -0.332071900367736816
3.06519126892089844 3.90765118598937988 0.578674674034118652
2.9766545295715332 3.96401596069335938 -0.652767956256866455
-1.08852660655975342 3.26298260688781738 0.421356737613677979
-0.0268653929233551025 0.5637245774269104 -0.315890669822692871
0.636239171028137207 4.89073944091796875 0.562024116516113281
-0.836869895458221436 1.10310828685760498 -0.186880007386207581
-0.366914123296737671 2.0493924617767334 -0.390894591808319092
-0.958146631717681885 2.18148922920227051 1.12938809394836426
-0.048445284366607666 4.17911672592163086 0.767405390739440918
0.275717943906784058 0.959921419620513916 -0.337754219770431519
-0.748305261135101318 3.39749002456665039 0.849276900291442871
0.698872148990631104 1.47043848037719727 -0.702037930488586426
-1.47045791149139404 1.82079291343688965 0.619086205959320068
2.91498613357543945 3.66797876358032227 1.05594611167907715
1.36212456226348877 3.53688669204711914 0.213697761297225952
1.03890395164489746 4.77270030975341797 1.06864786148071289
-0.809107303619384766 2.76729702949523926 1.20973646640777588
0.471810877323150635 2.97809362411499023 -0.25049862265586853
0.375236153602600098 0.961474001407623291 -0.49549064040184021
1.44089591503143311 2.44789004325866699 1.09330642223358154
-0.661195755004882812 1.62965250015258789 -0.0907405689358711243
1.30291008949279785 3.52458572387695312 0.705672860145568848
-1.48438560962677002 2.15411281585693359 0.364933013916015625
0.110195614397525787 0.900567352771759033 -0.344609618186950684
-0.983781337738037109 3.14316964149475098 0.800598800182342529
-0.0973858758807182312 3.97940278053283691 1.23988747596740723
-0.355120182037353516 2.39746928215026855 1.20712053775787354
0.828857123851776123 2.0172722339630127 1.11606645584106445
-2.94322872161865234 3.60990548133850098 1.6636197566986084
0.665245473384857178 1.03503942489624023 -0.555474042892456055
-0.465936213731765747 1.95537590980529785 -0.00694960542023181915
2.63125801086425781 4.24711370468139648 -0.196230784058570862
0.81818854808807373 3.94550895690917969 1.2760695219039917
0.850282967090606689 1.67125177383422852 -0.718715786933898926
-0.932037115097045898 2.09744048118591309 1.12066245079040527
0.670755326747894287 1.11991918087005615 -0.409971654415130615
0.870780289173126221 4.7947392463684082 1.11902523040771484
0.674414753913879395 1.05352818965911865 -0.510479331016540527
-0.822734177112579346 1.19841670989990234 -0.120680034160614014
-0.705932021141052246 1.50156986713409424 0.0480305925011634827
0.12970268726348877 2.4560692310333252 1.21916723251342773
-0.41157907247543335 4.14990425109863281 0.968529701232910156
1.89805090427398682 3.58543252944946289 0.0552196353673934937
-1.23994970321655273 2.69656801223754883 1.03186416625976562
-0.733410179615020752 1.29705357551574707 -0.523987531661987305
-0.715108692646026611 1.33782553672790527 -0.546798408031463623
1.76762020587921143 3.60196495056152344 0.106681264936923981
1.84981954097747803 3.41132235527038574 0.99014204740524292
-0.351929724216461182 4.07808828353881836 0.971094191074371338
1.10875844955444336 3.96691322326660156 0.446462482213973999
-0.638650715351104736 1.62569499015808105 0.0558529011905193329
2.1406862735748291 2.62557744979858398 -0.563004732131958008
-0.42315518856048584 0.523971498012542725 -0.265059977769851685
0.649177014827728271 1.85981333255767822 -0.174062460660934448
-1.38697075843811035 2.61999821662902832 0.443859666585922241
0.612144351005554199 3.10626101493835449 -0.386398911476135254
-2.7099907398223877 4.08541393280029297 0.982518553733825684
-0.441967129707336426 0.556135118007659912 -0.211492031812667847
-1.31628310680389404 2.29649138450622559 1.05289340019226074
-0.653325736522674561 1.57037270069122314 0.0799981355667114258
0.913032591342926025 1.29118788242340088 -0.139200076460838318
-1.38212168216705322 2.22164487838745117 0.328998029232025146
-0.59602510929107666 1.74620091915130615 -0.138604611158370972
1.16958069801330566 3.86400651931762695 -0.0869761332869529724
0.729975461959838867 1.11343777179718018 -0.42606624960899353
-0.212968170642852783 0.633504509925842285 -0.318968147039413452
1.5146561861038208 4.06903791427612305 1.12319803237915039
0.103515759110450745 2.59250903129577637 -0.451488077640533447
-0.350690722465515137 2.11062002182006836 -0.0825149565935134888
-0.792526483535766602 1.2232670783996582 -0.340563267469406128
0.462305277585983276 2.96632671356201172 -0.312764644622802734
-1.28940689563751221 2.5602874755859375 0.62786710262298584
2.10031938552856445 2.5598907470703125 0.767274200916290283
0.258393377065658569 2.74810934066772461 -0.478586018085479736
0.0356697551906108856 2.517578125 1.22583901882171631
-0.811269044876098633 1.20431125164031982 -0.238266974687576294
-0.430667906999588013 0.552665889263153076 -0.246838361024856567
0.520219564437866211 1.49036586284637451 -0.393737167119979858
1.07994949817657471 3.50817322731018066 1.23437225818634033
0.188137397170066833 0.781104326248168945 -0.334060341119766235
-0.713921308517456055 2.06050467491149902 1.13998496532440186
0.108281262218952179 0.67254108190536499 -0.330655336380004883
-0.770478487014770508 1.27544915676116943 -0.388333588838577271
-1.53674650192260742 2.04648780822753906 0.196382522583007812
-0.546180784702301025 1.7742466926574707 -0.418288320302963257
0.795644700527191162 2.62861394882202148 1.19270825386047363
0.621518850326538086 4.87410211563110352 0.583209574222564697
1.51859724521636963 3.32115983963012695 -0.0826261863112449646
0.425754666328430176 1.37156975269317627 -0.723080337047576904
0.122217424213886261 0.702869772911071777 -0.332243442535400391
3.0500636100769043 3.88836574554443359 0.760080695152282715
-0.561007320880889893 1.80728638172149658 -0.0620917119085788727
-1.02903366088867188 3.15779972076416016 0.92403876781463623
-0.300000995397567749 3.02487516403198242 1.25783371925354004
2.60029935836791992 4.26813077926635742 0.146637275815010071
-0.769607961177825928 1.30746138095855713 -0.339220136404037476
0.497330307960510254 0.982489407062530518 -0.317759960889816284
0.432632476091384888 1.26750218868255615 -0.710261940956115723
-0.719243049621582031 1.33910644054412842 -0.53145754337310791
0.327152073383331299 0.923618197441101074 -0.500054478645324707
-0.245249271392822266 0.612241625785827637 -0.31551554799079895
-0.144976183772087097 0.601908624172210693 -0.32017362117767334
0.00850869528949260712 2.20199966430664062 1.19739806652069092
-1.5451732873916626 1.87737846374511719 0.923014640808105469
0.840902626514434814 1.78866231441497803 -0.731065154075622559
0.170601516962051392 0.62773442268371582 -0.33539852499961853
1.60900735855102539 2.03785395622253418 -0.644603967666625977
-0.327786713838577271 2.13855242729187012 -0.11400950700044632
-0.805547595024108887 1.17780172824859619 -0.325114816427230835
-1.34716641902923584 2.44945168495178223 0.919891893863677979
0.633602738380432129 3.13323450088500977 -0.22642865777015686
1.9569326639175415 3.1070091724395752 0.9607086181640625
-0.24969838559627533 0.644057631492614746 -0.316651463508605957
-0.59021228551864624 1.75567138195037842 -0.143516227602958679
1.74472928047180176 2.90059232711791992 1.10993576049804688
1.66422653198242188 2.14987635612487793 -0.649474799633026123
0.690648794174194336 1.16820776462554932 -0.350146085023880005
-0.466994315385818481 1.89825141429901123 0.0607192181050777435
-0.427244246006011963 0.624679446220397949 -0.277521818876266479
0.193361148238182068 0.769857108592987061 -0.332898348569869995
0.907150685787200928 1.59704196453094482 -0.217581942677497864
2.13751363754272461 2.63835811614990234 -0.628258645534515381
0.4699363112449646 2.44865870475769043 1.20388495922088623
-0.775663614273071289 1.32938480377197266 -0.24411308765411377
0.571936488151550293 4.77463722229003906 0.93332517147064209
-0.603001177310943604 1.66604745388031006 0.0848720073699951172
-0.0446510128676891327 0.56829911470413208 -0.300949186086654663
0.277032971382141113 2.79329133033752441 -0.0959672108292579651
1.57637214660644531 3.40910053253173828 -0.181744381785392761
-1.50614726543426514 2.17755246162414551 0.425658434629440308
-0.419978946447372437 0.611752569675445557 -0.299319148063659668
-2.80754804611206055 4.02907609939575195 0.940330088138580322
-0.758236229419708252 1.4117051362991333 -0.105364233255386353
0.746949374675750732 3.23976612091064453 -0.142011672258377075
-0.680746078491210938 1.58714425563812256 -0.133500665426254272
1.97205567359924316 3.58564090728759766 0.0382312014698982239
-1.51486682891845703 2.08901500701904297 0.428150385618209839
-0.753476083278656006 1.15838682651519775 -0.575011193752288818
-1.21757900714874268 2.72422623634338379 0.319511890411376953
1.35255539417266846 3.53568935394287109 0.330909967422485352
0.938012123107910156 4.69842433929443359 1.29693090915679932
-0.431685686111450195 0.565182149410247803 -0.244393676519393921
-0.789868772029876709 1.2644122838973999 -0.286108464002609253
0.467821270227432251 1.43560492992401123 -0.726225435733795166
-1.40573728084564209 2.18715262413024902 0.821385502815246582
0.0392400547862052917 2.76957035064697266 1.24354147911071777
-0.420032918453216553 0.540805995464324951 -0.276138812303543091
1.16506016254425049 3.84907150268554688 0.250799894332885742
1.72176182270050049 3.74438381195068359 0.909374713897705078
-0.457028776407241821 0.660761535167694092 -0.196483984589576721
0.879447102546691895 1.2762373685836792 -0.140612214803695679
-0.65313345193862915 1.62006747722625732 -0.274459183216094971
-0.574475347995758057 2.49168920516967773 1.20142579078674316
0.598864972591400146 1.54467785358428955 -0.342206448316574097
-0.36325034499168396 2.00014948844909668 -0.580546736717224121
-0.0563744045794010162 0.599562704563140869 -0.263522177934646606
-0.691964149475097656 1.46383798122406006 -0.463034063577651978
1.48284232616424561 3.33696293830871582 -0.185805216431617737
0.660363078117370605 3.26556730270385742 1.24959659576416016
-0.819994568824768066 1.19442605972290039 -0.171219527721405029
0.808021247386932373 4.86304807662963867 0.835382223129272461
-0.41488724946975708 2.02585554122924805 0.0120001621544361115
1.05389225482940674 2.4870002269744873 1.1520233154296875
-0.00539580639451742172 4.18920707702636719 0.928072929382324219
1.51763510704040527 4.1342620849609375 0.925696194171905518
-0.700695812702178955 1.51534163951873779 -0.285441011190414429
1.0348583459854126 4.86936616897583008 0.467268079519271851
-0.495457172393798828 0.613499343395233154 -0.162079319357872009
-0.622902810573577881 1.65054810047149658 -0.381304085254669189
0.178976476192474365 2.1377558708190918 1.1877899169921875
-0.685467541217803955 1.56065893173217773 0.0388271883130073547
0.360020697116851807 0.904574811458587646 -0.326853394508361816
-0.848666191101074219 1.05760717391967773 -0.121535949409008026
2.03358101844787598 2.64461612701416016 0.993185997009277344
1.18215823173522949 1.63020694255828857 -0.658575773239135742
1.00157392024993896 4.82983875274658203 0.818233668804168701
1.98482322692871094 3.59203076362609863 0.285117268562316895
-0.657491147518157959 2.17218875885009766 1.16060042381286621
-0.0537496320903301239 2.45472073554992676 0.00290810945443809032
0.408536523580551147 3.56382513046264648 1.27928602695465088
-0.430400341749191284 0.571205317974090576 -0.248351603746414185
0.936423242092132568 3.72831916809082031 1.25882863998413086
-0.210733041167259216 0.646677315235137939 -0.321003884077072144
-0.611551225185394287 1.67772936820983887 -0.363732129335403442
-0.360648989677429199 3.21840715408325195 1.26967883110046387
-0.567742407321929932 1.72856879234313965 -0.440284878015518188
-0.548751652240753174 1.82850193977355957 -0.00649868277832865715
-1.01257038116455078 3.2087407112121582 0.52839428186416626
-0.308155626058578491 0.811005115509033203 -0.325710654258728027
-0.778166294097900391 3.37516403198242188 0.98764413595199585
-0.428805917501449585 0.563311755657196045 -0.252927869558334351
3.0361788272857666 3.87066483497619629 0.894187986850738525
1.22252416610717773 3.78145766258239746 -0.210555091500282288
0.293380439281463623 3.20810294151306152 1.26561379432678223
0.15369337797164917 0.681855916976928711 -0.328772664070129395
0.00971148721873760223 2.5132749080657959 -0.270950555801391602
-1.10658836364746094 3.03581404685974121 0.981853008270263672
0.707167983055114746 1.24497175216674805 -0.671088099479675293
-0.85120922327041626 2.07167267799377441 1.12652921676635742
-0.833076894283294678 1.14071595668792725 -0.150006189942359924
3.08879756927490234 3.91205072402954102 -0.393941789865493774
1.89533185958862305 3.54578733444213867 0.483080118894577026
-1.5369727611541748 2.06092929840087891 0.588421881198883057
-1.23830139636993408 2.64847111701965332 1.08876299858093262
3.07963037490844727 3.9389948844909668 -0.0139995906502008438
-0.792123258113861084 1.30571186542510986 -0.146953389048576355
-0.622298181056976318 1.63776659965515137 0.0679092109203338623
1.04141914844512939 1.3498150110244751 -0.631655097007751465
0.134572431445121765 0.701205551624298096 -0.331456780433654785
1.20607376098632812 3.76053833961486816 0.423235684633255005
-0.198394373059272766 0.789896607398986816 -0.334077417850494385
-0.745081305503845215 1.43540394306182861 -0.168351888656616211
-1.06221115589141846 3.0431060791015625 0.681377112865447998
0.517705917358398438 1.51674568653106689 -0.382737487554550171
-0.422544360160827637 0.617807626724243164 -0.330094635486602783
-0.687425613403320312 1.55599105358123779 -0.24148327112197876
2.66705703735351562 3.77168536186218262 -0.665779471397399902
2.61225748062133789 4.16449689865112305 0.91273123025894165
-0.140454158186912537 0.602464616298675537 -0.320469379425048828
1.54276275634765625 1.94759893417358398 -0.643742799758911133
-1.29846525192260742 2.13130044937133789 0.92160797119140625
0.982930421829223633 1.43176281452178955 -0.120430938899517059
-0.187063291668891907 2.23434734344482422 -0.584994316101074219
1.35905921459197998 1.6616523265838623 -0.631907999515533447
-0.212922170758247375 1.0267636775970459 -0.34667620062828064
0.894944548606872559 1.54748094081878662 -0.309828013181686401
1.25048792362213135 1.77487456798553467 -0.670759797096252441
-0.0590915679931640625 2.4146122932434082 -0.483440220355987549
0.266422450542449951 2.22414636611938477 1.19363141059875488
0.913120567798614502 1.1270754337310791 -0.610207915306091309
-0.00364820985123515129 0.56648099422454834 -0.320119678974151611
1.33158564567565918 2.03909111022949219 1.04600358009338379
0.409209191799163818 0.948366224765777588 -0.324700206518173218
0.0935722962021827698 4.27340316772460938 1.02772891521453857
-0.736523807048797607 1.24580371379852295 -0.562319636344909668
-0.0224146582186222076 2.48604846000671387 -0.144315943121910095
2.84352469444274902 3.99215483665466309 0.98846733570098877
2.13493585586547852 2.61027717590332031 0.497875958681106567
0.913973033428192139 1.60178840160369873 -0.184071078896522522
-0.968901276588439941 3.37326264381408691 0.779279828071594238
1.91453075408935547 2.47322344779968262 -0.647536575794219971
0.759155035018920898 4.7918243408203125 1.2091749906539917
-0.838959097862243652 1.02575242519378662 -0.266130924224853516
0.372706323862075806 0.829118907451629639 -0.331020861864089966
-1.35189807415008545 2.06206178665161133 0.999156773090362549
0.63949507474899292 4.82031536102294922 1.04504549503326416
0.268990635871887207 2.78452682495117188 -0.115459084510803223
-1.43826723098754883 2.46499991416931152 0.45848509669303894
2.54257631301879883 4.30067682266235352 -0.198705583810806274
-1.21350944042205811 3.02941155433654785 0.419906705617904663
-0.708630383014678955 3.79426145553588867 0.543902814388275146
2.06676220893859863 2.60910129547119141 0.936574220657348633
-0.849390387535095215 1.0320054292678833 -0.157717674970626831
-0.113146588206291199 2.37418866157531738 -0.340337067842483521
1.04801750183105469 1.82027304172515869 -0.709481537342071533
-0.683710217475891113 2.33841562271118164 1.17738711833953857
-1.20049440860748291 2.88558006286621094 0.502526640892028809
1.32252824306488037 1.74921166896820068 0.988483428955078125
-0.429468363523483276 0.533490478992462158 -0.2483864426612854
0.855525851249694824 1.69011425971984863 -0.274312317371368408
-0.795381247997283936 1.2891852855682373 -0.169530168175697327
1.80383062362670898 2.22648930549621582 0.999697208404541016
0.649368524551391602 1.4363478422164917 -0.335223525762557983
1.49304437637329102 3.30248689651489258 0.465582579374313354
0.593708038330078125 1.61734843254089355 -0.342977225780487061
-0.0888817980885505676 0.896184861660003662 -0.345056027173995972
-0.247181922197341919 0.927089929580688477 -0.339382141828536987
1.8178178071975708 3.64682483673095703 0.652379810810089111
2.02163791656494141 2.62030625343322754 1.00889050960540771
2.67286849021911621 4.12558126449584961 0.913977265357971191
-1.1050114631652832 2.96855068206787109 1.10780584812164307
1.34240198135375977 2.35263395309448242 1.09535670280456543
-0.471409052610397339 0.597053050994873047 -0.164807707071304321
1.11704576015472412 2.36309075355529785 1.12822091579437256
0.195243775844573975 0.769460797309875488 -0.332726985216140747
0.862808883190155029 1.77684175968170166 -0.149456828832626343
0.878606081008911133 3.39370155334472656 1.24234092235565186
-0.831326603889465332 1.17564129829406738 -0.0320340096950531006
-0.955223262310028076 2.79855942726135254 1.16372478008270264
0.307194262742996216 2.6208806037902832 1.22645878791809082
0.0489529743790626526 0.644173085689544678 -0.330444961786270142
1.44588828086853027 2.73129391670227051 1.12928235530853271
0.479212254285812378 1.81488692760467529 -0.191358700394630432
-1.3161931037902832 2.51073408126831055 0.972651183605194092
1.33902943134307861 3.59722661972045898 -0.0809711068868637085
0.992012917995452881 2.52518391609191895 1.16372740268707275
0.499454349279403687 1.66423773765563965 -0.360807120800018311
0.300763130187988281 0.399157434701919556 -0.0146593451499938965
-0.215512871742248535 2.23093771934509277 -0.473095864057540894
-0.419034063816070557 2.02068662643432617 -0.00718172639608383179
0.378332585096359253 1.69786500930786133 -0.404303848743438721
-1.06763756275177002 2.99239945411682129 0.776376426219940186
0.911351680755615234 2.84159493446350098 1.20181894302368164
0.813439249992370605 4.89565610885620117 0.608988165855407715
2.27895474433898926 3.03488802909851074 -0.650773525238037109
-0.287145614624023438 2.12318754196166992 -0.525706470012664795
-0.507683873176574707 3.3122408390045166 1.2674565315246582
-1.12939929962158203 2.24257135391235352 1.11318910121917725
1.59175097942352295 2.92152929306030273 1.13179206848144531
0.178198233246803284 0.772904515266418457 -0.334216117858886719
0.81298375129699707 1.16240513324737549 -0.643106758594512939
-0.934842109680175781 3.11499857902526855 1.17721879482269287
-1.53150498867034912 2.15795469284057617 0.493410408496856689
-0.798708856105804443 1.30000686645507812 -0.0231017861515283585
1.51932287216186523 2.69925642013549805 1.116036057472229
1.63446593284606934 3.45768427848815918 -0.143371239304542542
-0.0171623658388853073 1.21132302284240723 -0.354458630084991455
-0.454504281282424927 0.599098443984985352 -0.189503878355026245
0.788951337337493896 1.14920759201049805 -0.162014588713645935
-0.720174491405487061 1.21814942359924316 -0.63642585277557373
0.181319564580917358 1.3406977653503418 -0.354196608066558838
-0.219468563795089722 2.2128760814666748 0.117971822619438171
-2.78677010536193848 3.89837551116943359 1.42708814144134521
-0.143779382109642029 4.13436031341552734 0.475104063749313354
-1.33795785903930664 2.42136716842651367 1.00687706470489502
0.690837860107421875 1.2107316255569458 -0.337073355913162231
0.875095784664154053 1.7287752628326416 -0.182279244065284729
-0.612421572208404541 1.24796092510223389 -0.684527099132537842
1.55343461036682129 2.29725480079650879 1.05324351787567139
2.07187247276306152 2.81710076332092285 0.817668259143829346
0.846452713012695312 2.37245750427246094 1.16079926490783691
-0.845017194747924805 1.03970873355865479 -0.198310747742652893
-1.55054724216461182 2.10090231895446777 0.19662630558013916
0.993091344833374023 4.84917211532592773 0.706612527370452881
-0.709229707717895508 1.37315022945404053 -0.528700947761535645
-0.840519845485687256 3.48965001106262207 0.607726037502288818
0.198074117302894592 0.868820309638977051 -0.338637083768844604
-0.74584120512008667 1.2346646785736084 -0.539739310741424561
0.961504578590393066 1.41649889945983887 -0.119147039949893951
-0.396253645420074463 2.03737902641296387 0.0313778966665267944
1.97368383407592773 3.58860135078430176 0.0637712776660919189
1.51528990268707275 2.76810336112976074 1.12482523918151855
0.65173417329788208 3.14282441139221191 -0.398393779993057251
0.606484353542327881 1.38897812366485596 -0.357078582048416138
-0.476941764354705811 0.608027994632720947 -0.164955854415893555
-0.772951424121856689 1.30741965770721436 -0.317524701356887817
-1.39224708080291748 2.09074592590332031 0.809948980808258057
0.794959604740142822 4.08736705780029297 1.28321123123168945
0.00555592169985175133 4.31351804733276367 0.362826168537139893
1.3098607063293457 3.2699432373046875 1.19703638553619385
-0.674134612083435059 1.55307435989379883 -0.355106145143508911
0.749296903610229492 1.83514416217803955 -0.306547641754150391
-0.331892877817153931 0.729959428310394287 -0.315645962953567505
0.584500730037689209 3.08704686164855957 -0.0768017619848251343
-0.0214868206530809402 0.575240790843963623 -0.286906510591506958
0.261622965335845947 0.835882186889648438 -0.331740528345108032
-1.10296511650085449 3.02587413787841797 1.02165532112121582
-0.813871562480926514 1.19900429248809814 -0.22585335373878479
-2.99705100059509277 3.72297072410583496 1.46873188018798828
-0.69191509485244751 1.52178597450256348 -0.329923570156097412
-0.618820130825042725 1.25441479682922363 -0.685094892978668213
-0.721477150917053223 1.49371182918548584 -0.164572939276695251
0.887367010116577148 1.77104330062866211 -0.127987533807754517
-0.24400937557220459 0.637860298156738281 -0.316627204418182373
-0.571122646331787109 2.22818779945373535 1.17468249797821045
2.60510826110839844 4.25801992416381836 0.287535309791564941
0.710963904857635498 1.08443939685821533 -0.201703578233718872
2.85628795623779297 4.09902143478393555 0.199100673198699951
-1.26809370517730713 2.08144855499267578 1.01841413974761963
0.632255196571350098 3.12657070159912109 -0.374109119176864624
1.2367633581161499 1.71158814430236816 -0.663064360618591309
0.74448627233505249 1.39278507232666016 -0.684763908386230469
-0.423765718936920166 0.601470053195953369 -0.271486103534698486
1.38333308696746826 3.52129530906677246 -0.0959486663341522217
1.84828352928161621 3.65133380889892578 0.402293622493743896
-0.0846887603402137756 0.581865787506103516 -0.320541650056838989
-0.20265062153339386 2.28020739555358887 -0.262032240629196167
-0.479164004325866699 1.92753541469573975 0.0251190792769193649
-0.112558476626873016 0.62869340181350708 -0.323993891477584839
-0.949758172035217285 2.44975161552429199 1.16379117965698242
1.95208096504211426 2.92015552520751953 1.06206965446472168
-0.980328023433685303 3.18455696105957031 0.713049173355102539
1.61049544811248779 2.58873677253723145 1.08874177932739258
1.32184207439422607 3.50257515907287598 0.668070077896118164
-0.809158504009246826 1.25895023345947266 -0.0879972726106643677
-1.39594042301177979 2.42457079887390137 0.732459604740142822
-0.611814498901367188 1.69039785861968994 -0.314410656690597534
1.66083836555480957 3.8722076416015625 0.903719186782836914
1.79831135272979736 2.30012631416320801 -0.645815849304199219
1.99144601821899414 2.94499611854553223 0.994347691535949707
0.365332543849945068 0.981445074081420898 -0.331374824047088623
3.03369736671447754 3.94524002075195312 0.481414675712585449
0.670224606990814209 1.23598659038543701 -0.675030410289764404
0.536980092525482178 3.04307818412780762 -0.140600338578224182
0.41837736964225769 1.17263782024383545 -0.337581664323806763
-0.609360277652740479 1.62576091289520264 -0.502696454524993896
0.0856567025184631348 0.588516175746917725 -0.324205249547958374
-0.418384343385696411 2.04293155670166016 1.1641463041305542
-0.137442588806152344 0.596133887767791748 -0.319926828145980835
-1.35553205013275146 2.69158768653869629 0.475120186805725098
-0.00868972670286893845 0.963792622089385986 -0.348250776529312134
-0.112939856946468353 0.819481134414672852 -0.340764790773391724
-0.52523958683013916 1.86203920841217041 -0.112503916025161743
-1.01389801502227783 3.11135292053222656 0.740890443325042725
-0.786704838275909424 1.33068311214447021 -0.105622902512550354
-0.189993530511856079 0.705777823925018311 -0.328601270914077759
0.277726411819458008 1.20459115505218506 -0.34678041934967041
-0.689283549785614014 1.49066126346588135 -0.422071009874343872
-0.104978211224079132 1.11648225784301758 -0.353160172700881958
-0.321282774209976196 0.698706388473510742 -0.315375775098800659
-0.785450875759124756 1.24197554588317871 -0.354600012302398682
-1.2889249324798584 1.90609180927276611 1.00035977363586426
-0.144395887851715088 3.02990221977233887 1.25992405414581299
-1.2635657787322998 1.8544609546661377 1.02599024772644043
-2.85153341293334961 3.8771967887878418 1.35502874851226807
-0.589938759803771973 1.72836935520172119 -0.317378073930740356
0.210863322019577026 0.884921610355377197 -0.338622629642486572
0.609794676303863525 2.16179752349853516 1.16017067432403564
-0.0283146575093269348 2.44255471229553223 0.0607676208019256592
-0.229411542415618896 4.14211654663085938 0.250265598297119141
0.284240543842315674 2.79340839385986328 -0.248201474547386169
0.414286762475967407 4.66151905059814453 0.701358139514923096
-0.633092164993286133 1.64388442039489746 -0.336919397115707397
0.932771623134613037 4.79594135284423828 1.06248831748962402
-0.415980517864227295 3.62876200675964355 1.25960612297058105
0.293941348791122437 4.47472143173217773 1.04433763027191162
0.382999688386917114 0.950013101100921631 -0.32751503586769104
0.00410917634144425392 0.638058185577392578 -0.330331802368164062
-0.822100996971130371 4.46338796615600586 1.32723259925842285
-0.382075846195220947 2.01793766021728516 -0.432708054780960083
0.935105741024017334 1.25388491153717041 -0.631328284740447998
-1.51975631713867188 1.98973274230957031 0.384229779243469238
0.417857557535171509 3.72893238067626953 1.28554165363311768
0.149681359529495239 1.02840638160705566 -0.347230851650238037
0.165578529238700867 1.38228178024291992 -0.355357080698013306
0.30039253830909729 0.398665636777877808 0.0288102664053440094
0.295986533164978027 0.401044726371765137 0.0394347943365573883
-0.443012028932571411 0.589959859848022461 -0.210376694798469543
0.851589083671569824 2.18204140663146973 1.14001405239105225
1.48726081848144531 2.69156789779663086 1.11923456192016602
1.3514631986618042 3.4401698112487793 0.696922779083251953
0.29105675220489502 0.405693471431732178 -0.0264343935996294022
0.673005104064941406 1.55972862243652344 -0.327062666416168213
-2.77434301376342773 3.90916538238525391 1.4217756986618042
-2.89240670204162598 3.8386540412902832 1.37793993949890137
-0.00489999027922749519 1.26808822154998779 -0.356046289205551147
0.713860511779785156 1.49387741088867188 -0.316793769598007202
-0.244356393814086914 0.602266430854797363 -0.323217988014221191
2.07171010971069336 2.70325827598571777 0.829460978507995605
-0.535671710968017578 1.80037200450897217 -0.386055260896682739
-0.446130543947219849 4.17310571670532227 0.973944604396820068
0.457914888858795166 2.9381563663482666 -0.588261246681213379
1.19742870330810547 3.53483700752258301 1.22700321674346924
-0.752472758293151855 2.74275302886962891 1.21200430393218994
-1.38831686973571777 1.70818436145782471 0.920777738094329834
-1.52247989177703857 2.03446841239929199 0.455534607172012329
-0.481595665216445923 2.65178894996643066 1.22207319736480713
0.395297378301620483 0.974291443824768066 -0.527489423751831055
-0.561062157154083252 1.7635570764541626 -0.369803845882415771
-1.25993883609771729 2.67998337745666504 0.263523191213607788
-1.12063300609588623 2.85258817672729492 0.834727466106414795
0.55940932035446167 2.66451144218444824 1.215309739112854
-0.786184430122375488 1.31264412403106689 0.0357670783996582031
-1.55322074890136719 1.94813048839569092 0.934720396995544434
-0.85562443733215332 1.03957974910736084 0.00615795468911528587
-1.4427180290222168 2.2446904182434082 0.928090929985046387
-0.356962770223617554 0.747006714344024658 -0.314167678356170654
0.875429809093475342 1.69493269920349121 -0.206822767853736877
-1.24441289901733398 2.06882190704345703 1.05145108699798584
1.88283920288085938 3.34508609771728516 0.915435910224914551
-1.34130227565765381 2.57126688957214355 0.587913095951080322
-0.60334545373916626 1.7033693790435791 -0.324895262718200684
0.388449192047119141 2.53432774543762207 1.21598005294799805
1.94565224647521973 3.06403565406799316 1.04180002212524414
0.772117435932159424 1.82206118106842041 -0.321630984544754028
0.397662818431854248 2.43101024627685547 1.20672821998596191
0.687252938747406006 2.09243464469909668 1.14277708530426025
0.814524590969085693 1.81198370456695557 -0.208225861191749573
2.49475646018981934 4.33307409286499023 0.0256669800728559494
-0.821344554424285889 1.2192680835723877 -0.00722233904525637627
0.294763654470443726 1.35413742065429688 -0.351330220699310303
-0.51954275369644165 1.76141345500946045 -0.561335146427154541
-1.53618872165679932 1.94562697410583496 0.454082190990447998
2.15855622291564941 2.65588641166687012 -0.361839503049850464
-1.49121236801147461 1.87035632133483887 0.569463789463043213
-0.836518824100494385 3.51058483123779297 0.469966143369674683
0.029062880203127861 0.835699975490570068 -0.343548864126205444
-0.764986395835876465 1.34676134586334229 -0.285596132278442383
0.291927337646484375 0.405451089143753052 0.0196938663721084595
-0.274954944849014282 0.878477692604064941 -0.334075361490249634
-0.408406555652618408 2.01961469650268555 -0.265582948923110962
1.07138824462890625 2.98138570785522461 1.1973649263381958
-1.31196403503417969 2.52750706672668457 0.793499946594238281
2.22322487831115723 2.80662131309509277 0.648376226425170898
-1.06033957004547119 2.45739889144897461 1.14995646476745605
0.820605039596557617 1.73597562313079834 -0.343454122543334961
-0.821745514869689941 1.05802404880523682 0.0889943763613700867
-0.442584455013275146 0.579451322555541992 -0.210748255252838135
-0.204158306121826172 0.668796837329864502 -0.324060559272766113
-0.338994026184082031 0.851743996143341064 -0.325926929712295532
-0.984720408916473389 3.42833757400512695 0.458955615758895874
0.664794802665710449 1.13937032222747803 -0.42249143123626709
-1.06220269203186035 3.06570672988891602 0.599270939826965332
-0.458733022212982178 2.52590131759643555 1.2119370698928833
0.860958874225616455 1.64234161376953125 -0.714065790176391602
1.3041456937789917 4.34555959701538086 1.22012042999267578
0.478783160448074341 3.60891914367675781 1.27837121486663818
-0.134008601307868958 0.68901902437210083 -0.325696259737014771
-1.28649747371673584 2.52864193916320801 1.05148506164550781
0.61839979887008667 1.4162670373916626 -0.347315490245819092
-0.530162572860717773 1.8457791805267334 0.0284270457923412323
-0.816554129123687744 1.15475046634674072 -0.283182978630065918
-1.18105435371398926 2.75360202789306641 0.766615629196166992
1.17549192905426025 3.85076308250427246 -0.250910103321075439
0.238921016454696655 0.428392589092254639 0.0969357490539550781
0.827401041984558105 1.73148071765899658 -0.309744268655776978
0.560368120670318604 1.41713285446166992 -0.384463131427764893
-0.820307612419128418 1.20848608016967773 -0.121694013476371765
-0.537365376949310303 1.8218379020690918 -0.291374891996383667
2.46138930320739746 4.27511978149414062 0.815422713756561279
0.136739209294319153 0.923146665096282959 -0.344500541687011719
1.66925466060638428 2.1210792064666748 1.00262486934661865
-0.432830870151519775 0.537667393684387207 -0.23886561393737793
-0.351485729217529297 2.70185351371765137 1.23234188556671143
-0.402956217527389526 0.555680215358734131 -0.310066252946853638
-0.674024701118469238 1.51681363582611084 -0.443851619958877563
1.48730766773223877 3.32772040367126465 -0.201059997081756592
0.879551887512207031 1.23039340972900391 -0.636992156505584717
-0.801933228969573975 1.25272953510284424 -0.209259450435638428
-0.433656364679336548 1.96890664100646973 0.0443187393248081207
-1.0714796781539917 3.04717087745666504 1.0938255786895752
-1.37674534320831299 2.06746697425842285 0.859714686870574951
2.48478460311889648 4.33515119552612305 -0.179754972457885742
0.292810827493667603 0.405228286981582642 0.0072011137381196022
-1.36431372165679932 2.32797527313232422 0.99010545015335083
0.333139151334762573 2.84223389625549316 -0.23907095193862915
2.16577601432800293 2.64798378944396973 0.0658784359693527222
0.535198211669921875 3.22107219696044922 1.25546610355377197
-0.384837567806243896 0.788340389728546143 -0.314740270376205444
-0.0045408979058265686 1.17515718936920166 -0.355013459920883179
-0.742911279201507568 1.424155592918396 -0.241269335150718689
-0.274254500865936279 2.10818099975585938 -0.626888453960418701
1.32248282432556152 2.59937191009521484 1.13016843795776367
-0.358373910188674927 4.15276241302490234 0.319785743951797485
-0.0221490450203418732 2.4565887451171875 -0.474382549524307251
-0.783678114414215088 1.33721673488616943 -0.121983528137207031
-0.833943963050842285 1.14190328121185303 -0.133928552269935608
0.218207895755767822 2.77725744247436523 1.24041247367858887
-0.519301474094390869 2.85940670967102051 1.23645257949829102
1.75704216957092285 2.92106223106384277 1.1108475923538208
-0.837164461612701416 1.12644624710083008 -0.129446670413017273
0.101398050785064697 0.77944183349609375 -0.338889747858047485
0.839493870735168457 1.71067714691162109 -0.723510682582855225
-0.0316866375505924225 0.911145865917205811 -0.346498697996139526
1.28866481781005859 4.48653030395507812 0.972680866718292236
-0.0427103489637374878 0.581746518611907959 -0.268097043037414551
0.414728462696075439 4.07579421997070312 1.29889249801635742
1.25096368789672852 2.53583765029907227 1.13258659839630127
-1.31926321983337402 2.12942290306091309 0.991432368755340576
0.120618514716625214 2.28404998779296875 1.2041325569152832
0.410367399454116821 2.87028741836547852 0.0714090615510940552
-0.606023073196411133 1.71092891693115234 -0.269582867622375488
-0.759437739849090576 1.40719294548034668 -0.115030072629451752
1.07857799530029297 4.78507804870605469 0.969379425048828125
2.94113636016845703 3.94377470016479492 0.892388820648193359
-0.823891341686248779 1.17800092697143555 0.0376806184649467468
0.191682144999504089 2.70579242706298828 -0.157072156667709351
-0.245878979563713074 0.621811211109161377 -0.314553886651992798
1.27811539173126221 1.55290436744689941 -0.62734687328338623
0.843881309032440186 1.20658254623413086 -0.150091126561164856
0.368371099233627319 0.879989922046661377 -0.324225187301635742
0.145473971962928772 0.617176949977874756 -0.329757660627365112
2.16035223007202148 2.62481832504272461 -0.28297579288482666
-1.13558626174926758 2.69617390632629395 1.12114989757537842
-0.466329962015151978 0.606449306011199951 -0.168838322162628174
-0.847932636737823486 1.08813178539276123 -0.0116019947454333305
1.13984274864196777 3.8644256591796875 0.407458722591400146
-1.30140137672424316 2.18225646018981934 0.855741202831268311
-0.806255817413330078 1.20609354972839355 -0.275769978761672974
-1.30793464183807373 1.74777448177337646 0.991812467575073242
-0.20463620126247406 1.01194822788238525 -0.346469342708587646
-0.437887609004974365 0.563794493675231934 -0.225091651082038879
0.647629380226135254 1.2415008544921875 -0.377997398376464844
-1.27174794673919678 2.59150218963623047 1.03464198112487793
-1.51112854480743408 1.99187290668487549 0.370484411716461182
0.809638857841491699 1.64984023571014404 -0.721235215663909912
0.0850878059864044189 4.40404319763183594 0.266091138124465942
0.952612817287445068 4.65151882171630859 1.29500460624694824
2.13050484657287598 2.62137198448181152 0.574525177478790283
-1.40789878368377686 2.0279543399810791 0.982630252838134766
-0.435957044363021851 0.625636279582977295 -0.22606348991394043
2.58387279510498047 4.27733993530273438 0.167223140597343445
-0.404338032007217407 3.2362968921661377 1.26906836032867432
-0.113905720412731171 2.39011788368225098 -0.0141578717157244682
-0.0325567945837974548 1.09897875785827637 -0.352831423282623291
2.66979813575744629 4.22155475616455078 0.22505757212638855
-1.05172157287597656 3.33280730247497559 0.398786306381225586
-0.162516474723815918 2.29408860206604004 -0.486487716436386108
-0.207971304655075073 2.48407983779907227 1.22129988670349121
0.493641853332519531 1.61710834503173828 -0.373578965663909912
-0.247328624129295349 0.853428959846496582 -0.334660172462463379
0.595575332641601562 2.32358789443969727 1.18093252182006836
0.26769295334815979 0.40992504358291626 0.101498447358608246
0.594515979290008545 1.24412822723388672 -0.688320457935333252
0.882324159145355225 1.20390284061431885 -0.63183516263961792
0.471786648035049438 1.39272511005401611 -0.721033573150634766
-0.423081487417221069 2.01517105102539062 -0.0692338645458221436
0.427768230438232422 2.5745084285736084 1.21695876121520996
-0.24396216869354248 2.17710185050964355 0.100589349865913391
1.80018055438995361 3.15491628646850586 1.13250243663787842
-0.248096287250518799 0.695370078086853027 -0.322107911109924316
0.752310812473297119 2.34570527076721191 1.16994166374206543
-0.42259669303894043 0.604229271411895752 -0.275594890117645264
0.889760076999664307 1.33100926876068115 -0.654391765594482422
-1.53626716136932373 1.97145509719848633 0.408727258443832397
0.656285583972930908 1.16065680980682373 -0.413884341716766357
2.87534427642822266 3.97926163673400879 0.947561085224151611
-0.345813512802124023 2.11404275894165039 -0.147765964269638062
-0.45470091700553894 0.62042468786239624 -0.188899517059326172
2.44912910461425781 4.35116672515869141 -0.262896358966827393
1.23317432403564453 3.72534823417663574 0.383967787027359009
-0.826943457126617432 1.14442801475524902 -0.212861329317092896
-0.780785202980041504 1.27083373069763184 -0.335739344358444214
-0.933649539947509766 3.00775432586669922 1.17232191562652588
-0.424903661012649536 0.623606026172637939 -0.316939413547515869
