ply
format ascii 1.0
element vertex 256
comment vertices
property float x
property float y
property float z
end_header
-0.947809815406799316 3.05989336967468262 0.951951444149017334
2.6583092212677002 3.46293210983276367 -0.385804831981658936
0.713231801986694336 1.52665472030639648 -0.311147838830947876
1.07693171501159668 3.52816200256347656 0.0402130484580993652
0.990599393844604492 2.87886309623718262 0.573948562145233154
-3.20488810539245605 4.15759372711181641 0.202735722064971924
-0.0935052633285522461 3.08889198303222656 -0.243131250143051147
-0.901324748992919922 2.02222347259521484 -0.246358782052993774
-0.675939798355102539 5.1127324104309082 0.0262345708906650543
3.46875596046447754 4.12454605102539062 0.478947252035140991
1.18543636798858643 -0.47252500057220459 0.0652995109558105469
2.85953140258789062 2.08279561996459961 -0.0946445837616920471
0.751396596431732178 2.6250145435333252 0.778616547584533691
-2.94735074043273926 3.96341109275817871 1.50018131732940674
0.174666672945022583 2.08546352386474609 -0.40114295482635498
1.42578089237213135 3.80876851081848145 0.0558858327567577362
-1.5418388843536377 1.86571812629699707 0.76907426118850708
0.0250717662274837494 0.853579103946685791 -0.479032546281814575
-2.31512856483459473 4.70966672897338867 0.18106764554977417
0.933866202831268311 4.19591808319091797 -0.327113032341003418
-0.775005817413330078 3.62072944641113281 0.381153404712677002
-0.651890218257904053 4.11672163009643555 0.893097281455993652
-0.290512561798095703 3.85797500610351562 -0.0657389014959335327
-1.68362724781036377 2.74855947494506836 0.35751989483833313
-0.419812440872192383 2.82831311225891113 -0.170393437147140503
1.27077257633209229 3.17320394515991211 0.71172255277633667
1.29676008224487305 1.72950780391693115 -0.229936540126800537
1.27867352962493896 2.11925029754638672 0.445359945297241211
0.875182151794433594 4.54940891265869141 -0.354265749454498291
0.445982158184051514 4.32617664337158203 1.05558204650878906
-0.894239068031311035 2.23816752433776855 -0.0554648041725158691
0.317799359560012817 2.43409872055053711 0.830138146877288818
0.692638218402862549 1.59914326667785645 -0.324034959077835083
0.825877666473388672 2.57225465774536133 0.654672026634216309
-0.0760733038187026978 1.52665627002716064 -0.569212436676025391
0.0802681893110275269 2.44274616241455078 0.759700477123260498
1.94241857528686523 3.00684189796447754 0.208512634038925171
-2.0993494987487793 3.67551088333129883 0.164513260126113892
3.74982666969299316 3.28399872779846191 -0.256963819265365601
2.25046658515930176 3.25057506561279297 -0.16935943067073822
-0.97931140661239624 2.08510231971740723 0.0685788765549659729
1.25635766983032227 2.98765754699707031 0.568036079406738281
1.33354520797729492 4.0218048095703125 0.0762933269143104553
-0.541308403015136719 3.89144563674926758 0.632505476474761963
0.0422891229391098022 0.982061147689819336 -0.467122733592987061
0.41293632984161377 3.3738410472869873 -0.256061851978302002
-2.9269709587097168 3.9799652099609375 0.895236015319824219
-0.635476350784301758 3.50727319717407227 1.08337259292602539
0.0171438511461019516 2.95466232299804688 -0.199008792638778687
0.66323387622833252 3.02593660354614258 0.797782480716705322
-0.415682524442672729 2.21330642700195312 -0.185431838035583496
1.51429831981658936 3.69879841804504395 -0.243799269199371338
-1.18290126323699951 2.89134025573730469 0.297476321458816528
-0.873396515846252441 2.76131367683410645 0.758297860622406006
0.945827722549438477 3.25499916076660156 0.722831904888153076
0.0897450447082519531 0.374551057815551758 -0.229150161147117615
0.701293110847473145 1.61090505123138428 -0.325781971216201782
-0.255470156669616699 2.80416035652160645 -0.17337431013584137
-3.2885746955871582 2.63322782516479492 0.808243393898010254
0.699154257774353027 1.6138007640838623 -0.324287980794906616
0.813041865825653076 2.80897641181945801 0.603958249092102051
0.17295074462890625 4.16459941864013672 -0.00453067198395729065
0.344040393829345703 2.36988592147827148 0.622255623340606689
-0.0381273329257965088 3.88081073760986328 1.10015654563903809
-0.535405933856964111 4.77145481109619141 0.522115230560302734
-0.112711995840072632 2.39317870140075684 0.651840806007385254
2.29943156242370605 3.69307303428649902 -0.0875621587038040161
-2.40805625915527344 3.63246846199035645 0.109798848628997803
-1.56934261322021484 4.78657150268554688 0.105267822742462158
-0.547321915626525879 1.88773047924041748 -0.309746503829956055
1.27176284790039062 3.9385979175567627 0.185105681419372559
-0.1890287846326828 3.91403508186340332 0.199994206428527832
1.07348442077636719 2.57968401908874512 0.65563732385635376
2.52572321891784668 3.58397388458251953 -0.325055867433547974
3.53020501136779785 1.33869493007659912 -0.144134402275085449
-0.642954587936401367 3.55587983131408691 0.844620585441589355
0.942227005958557129 4.48964023590087891 0.0216455496847629547
-0.0594899654388427734 2.80179429054260254 0.223192036151885986
1.28337526321411133 3.35030317306518555 0.514887869358062744
-0.562853336334228516 3.78635931015014648 0.296386778354644775
0.761797130107879639 4.38971233367919922 1.1124722957611084
2.60579013824462891 5.14926624298095703 0.0024351850152015686
0.190960809588432312 2.44726228713989258 0.67251664400100708
2.4902489185333252 1.58542728424072266 -0.247435033321380615
0.756739556789398193 2.9478912353515625 0.762936174869537354
0.129587024450302124 3.04588747024536133 -0.218749910593032837
0.756282687187194824 3.02041387557983398 0.738457024097442627
0.146359562873840332 2.83973288536071777 0.994010090827941895
0.067648470401763916 0.972456276416778564 -0.494109809398651123
-0.105954922735691071 1.77297472953796387 -0.484678953886032104
0.654106616973876953 1.56065797805786133 -0.307644426822662354
1.64635241031646729 0.983872830867767334 -0.233601629734039307
0.615233659744262695 3.40606379508972168 0.793592572212219238
1.47437202930450439 3.75957918167114258 -0.0425164811313152313
1.13189399242401123 2.07442522048950195 0.597387433052062988
0.539138615131378174 2.45994377136230469 0.574299156665802002
-2.86618876457214355 2.75483798980712891 1.3133624792098999
0.0770787447690963745 0.964848518371582031 -0.505564093589782715
1.29376435279846191 3.1757347583770752 0.447051048278808594
-0.242616161704063416 1.79181087017059326 -0.410681605339050293
-0.850765764713287354 3.47128653526306152 0.757923245429992676
-0.833218753337860107 2.10515403747558594 0.579510688781738281
-0.399674683809280396 2.72457075119018555 0.805745601654052734
-0.364548146724700928 2.84643888473510742 -0.173982024192810059
0.703472137451171875 1.57049322128295898 -0.315645694732666016
-0.740819811820983887 3.85604405403137207 0.588120341300964355
1.37323880195617676 3.75246000289916992 -0.0889610797166824341
-2.53788018226623535 4.29401397705078125 0.182271629571914673
2.16209173202514648 3.47264814376831055 -0.240961745381355286
1.25847017765045166 3.52427124977111816 0.51631319522857666
2.29205918312072754 2.43205642700195312 0.0816052928566932678
1.50404953956604004 3.82156491279602051 0.0102660581469535828
-0.200800091028213501 4.08809041976928711 0.931785821914672852
-0.338685452938079834 0.602237701416015625 0.310844689607620239
0.456029742956161499 2.36321616172790527 0.649005651473999023
-0.404735207557678223 3.86867165565490723 0.958801388740539551
-1.01335334777832031 2.8853144645690918 0.680242478847503662
-1.35867738723754883 2.04130029678344727 0.499738097190856934
2.29292988777160645 3.59298992156982422 0.116853110492229462
0.698021054267883301 1.60587334632873535 -0.320794522762298584
0.425706386566162109 2.45531487464904785 0.668775022029876709
3.54292654991149902 3.64861106872558594 -0.0176086574792861938
-0.793688952922821045 4.36592769622802734 0.907942891120910645
-0.202220812439918518 2.67143130302429199 -0.146341800689697266
1.354972243309021 3.80488920211791992 0.602229952812194824
-0.595855772495269775 3.70134615898132324 0.886092066764831543
-1.29423809051513672 2.23386406898498535 0.246256038546562195
1.20214986801147461 3.1024010181427002 -0.146496236324310303
1.02298223972320557 1.91267716884613037 0.47394406795501709
-0.855570614337921143 4.23720264434814453 0.0719762891530990601
-0.522781193256378174 4.02393865585327148 0.375619083642959595
-0.978346824645996094 2.69748997688293457 0.886615931987762451
0.291944772005081177 3.61825060844421387 0.00893454253673553467
-2.85036349296569824 3.71175289154052734 1.28308093547821045
-0.0475135892629623413 2.85815978050231934 -0.240042895078659058
1.01549553871154785 2.89981698989868164 0.597253024578094482
1.09445071220397949 3.23736453056335449 0.427053481340408325
0.249078124761581421 3.37758135795593262 -0.307149201631546021
1.01479709148406982 2.89985084533691406 0.63779139518737793
0.108414717018604279 2.36163759231567383 -0.236995339393615723
-0.145375847816467285 2.79943466186523438 -0.20389324426651001
-0.578345715999603271 2.49915719032287598 -0.113796480000019073
-0.806106150150299072 1.97629284858703613 0.522256374359130859
1.32855749130249023 3.86510086059570312 0.171599105000495911
1.59067010879516602 4.47788476943969727 -0.119945839047431946
1.44920432567596436 3.75588321685791016 0.186283469200134277
1.41767203807830811 3.862396240234375 0.0266651920974254608
1.00358796119689941 2.84523630142211914 0.696135938167572021
-0.254595488309860229 2.20805001258850098 -0.216576695442199707
2.15769195556640625 4.83473300933837891 -0.158634781837463379
-0.460503339767456055 0.538490891456604004 -0.454235285520553589
-0.694327950477600098 1.53814506530761719 -0.300530552864074707
-0.718712091445922852 2.20241069793701172 -0.235334277153015137
-1.4435124397277832 4.83627891540527344 0.0411930158734321594
2.62175178527832031 3.96496295928955078 -0.417425721883773804
-0.628193080425262451 3.98192143440246582 0.666419386863708496
0.861181020736694336 2.7275238037109375 0.725993156433105469
1.21200883388519287 3.43864679336547852 0.725335419178009033
1.26321637630462646 3.89043760299682617 0.250939548015594482
-3.0942232608795166 3.95563745498657227 0.864611923694610596
0.688480079174041748 1.59959983825683594 -0.320918738842010498
1.9085533618927002 2.56482505798339844 -0.147758945822715759
-0.130691751837730408 2.51662158966064453 0.879378139972686768
0.75424957275390625 3.21141457557678223 0.701259076595306396
-0.570034623146057129 3.26221084594726562 0.59841465950012207
-0.650075912475585938 3.6494603157043457 0.890942692756652832
0.889034628868103027 2.81382203102111816 0.689643383026123047
0.456870436668395996 4.35341167449951172 0.918312609195709229
0.691666305065155029 1.57930803298950195 -0.334219783544540405
0.707649707794189453 3.01181983947753906 0.683804035186767578
0.521908283233642578 1.47923803329467773 0.395138949155807495
2.20898938179016113 4.05491161346435547 -0.0496374815702438354
0.483517050743103027 3.30071663856506348 0.67104572057723999
1.42960894107818604 3.88190984725952148 -0.0780540555715560913
-0.115142494440078735 2.68592453002929688 0.789787113666534424
0.0595159977674484253 1.01343286037445068 -0.454223155975341797
-2.92769694328308105 3.84025692939758301 0.237949267029762268
0.992166340351104736 2.7730710506439209 0.55878150463104248
-0.748208284378051758 1.21068179607391357 -0.544384419918060303
0.912022054195404053 2.78305983543395996 0.556065082550048828
0.105881243944168091 0.887270569801330566 -0.425772935152053833
0.291318386793136597 3.65830111503601074 -0.0909249112010002136
0.688712120056152344 2.79568839073181152 0.746509432792663574
-1.54626297950744629 2.04984045028686523 0.416718423366546631
-1.24783766269683838 2.41575789451599121 0.861199319362640381
1.97934412956237793 2.4875185489654541 0.120210945606231689
0.0360247194766998291 3.71793961524963379 -0.121310718357563019
0.69464951753616333 1.60237038135528564 -0.324966341257095337
0.309564054012298584 2.96605730056762695 0.786869525909423828
0.061724543571472168 3.98922228813171387 1.07642614841461182
4.03653097152709961 3.1355137825012207 -0.353007793426513672
0.777356803417205811 1.60787284374237061 -0.367928266525268555
-0.748688399791717529 3.47031736373901367 0.956595003604888916
1.41839504241943359 3.12869715690612793 0.63360905647277832
0.0683484077453613281 0.971094667911529541 -0.497740387916564941
-1.14236795902252197 2.70052313804626465 0.483957082033157349
0.913000941276550293 2.8399965763092041 0.735618948936462402
-0.895235896110534668 2.19140481948852539 0.838240861892700195
-0.696414768695831299 3.81526279449462891 0.473082482814788818
-2.81139969825744629 3.58270430564880371 1.48322880268096924
-0.103299468755722046 2.51229190826416016 0.967618227005004883
-0.917269587516784668 3.17778706550598145 0.857770979404449463
1.47742700576782227 4.31227970123291016 -0.161992549896240234
1.04945027828216553 1.4982750415802002 0.382240891456604004
0.793028175830841064 3.04310798645019531 0.824472308158874512
0.699488639831542969 1.61192226409912109 -0.319072902202606201
2.90508794784545898 3.42402505874633789 -0.378109067678451538
1.4624096155166626 3.84044170379638672 -0.046836022287607193
1.24939191341400146 1.49736118316650391 0.301033347845077515
0.478461146354675293 1.36421334743499756 0.511657774448394775
2.74791049957275391 3.30566048622131348 -0.196028232574462891
-0.129754379391670227 2.84438681602478027 -0.233214437961578369
3.60930466651916504 3.01219320297241211 0.107347786426544189
2.75805139541625977 2.92096281051635742 -0.11014922708272934
2.75789451599121094 1.23137307167053223 -0.304452180862426758
-0.669045150279998779 5.08045482635498047 0.0241421181708574295
-1.42943286895751953 2.40470767021179199 0.371095240116119385
-0.350008994340896606 3.82424831390380859 1.17029154300689697
0.682878971099853516 1.60062336921691895 -0.311287671327590942
0.0566619038581848145 3.0969998836517334 -0.214919924736022949
0.0695101320743560791 1.03496456146240234 -0.487318307161331177
0.745918035507202148 2.77051043510437012 0.773450791835784912
0.857400655746459961 3.84051990509033203 0.233626902103424072
-0.411265432834625244 4.06844806671142578 0.266421616077423096
0.0879695862531661987 1.76242232322692871 -0.414769768714904785
0.253723889589309692 -0.694077014923095703 0.0825245380401611328
-0.624622762203216553 1.5935438871383667 -0.367835432291030884
0.038763243705034256 0.988163173198699951 -0.516121208667755127
-0.901631355285644531 3.20395684242248535 0.729352176189422607
0.486475467681884766 2.65038180351257324 0.791900634765625
-2.8748164176940918 4.00841712951660156 0.502582430839538574
-0.340781748294830322 3.98130035400390625 1.03707480430603027
1.10091257095336914 3.09595823287963867 0.756490349769592285
-0.684440255165100098 3.74900674819946289 0.646797060966491699
0.729641199111938477 1.53981161117553711 -0.321297526359558105
0.861116111278533936 2.71174311637878418 0.643165051937103271
3.66090822219848633 4.33561515808105469 0.0549867600202560425
0.075095057487487793 3.33970880508422852 1.14668679237365723
-0.0545154660940170288 4.10440587997436523 0.602644562721252441
0.143795907497406006 1.05643928050994873 -0.473891377449035645
1.46514999866485596 3.8533480167388916 -0.0684827938675880432
0.987859129905700684 3.78946614265441895 -0.244619607925415039
-0.920042037963867188 3.03722310066223145 0.665528178215026855
-0.909548819065093994 3.25557875633239746 0.685882687568664551
-0.0615515336394309998 2.07634067535400391 -0.346454799175262451
-0.399122148752212524 3.97722363471984863 0.767385601997375488
-0.414728790521621704 3.79510784149169922 0.343924105167388916
3.72967886924743652 4.32276487350463867 -0.0712135285139083862
1.4536902904510498 3.84286046028137207 0.102873571217060089
0.0938587486743927002 2.99103355407714844 -0.214434117078781128
2.20098495483398438 3.5571291446685791 -0.434620201587677002
-1.19965815544128418 2.55195164680480957 0.852617204189300537
2.38512778282165527 2.01889681816101074 -0.0114563349634408951
0.919440209865570068 2.80076289176940918 0.47273021936416626
-0.696344673633575439 4.61300468444824219 1.01186501979827881
-2.44281673431396484 4.0491795539855957 0.156512230634689331
