ply
format ascii 1.0
element vertex 256
comment vertices
property float x
property float y
property float z
end_header
-0.905260980129241943 3.13543295860290527 0.729796886444091797
2.61460208892822266 3.52038693428039551 -0.432306945323944092
0.756075918674468994 1.31067931652069092 -0.313076883554458618
1.04624879360198975 3.60294556617736816 0.167485415935516357
1.05402612686157227 2.92115139961242676 0.57333064079284668
-3.02398967742919922 4.04434728622436523 0.214235961437225342
-0.114208519458770752 3.08840680122375488 -0.254196763038635254
-0.668888449668884277 1.88814163208007812 -0.234401926398277283
-0.72303473949432373 5.11120796203613281 0.0444249808788299561
2.89569616317749023 4.30497932434082031 0.43652498722076416
0.407098501920700073 1.75601303577423096 0.579407393932342529
2.29828977584838867 2.31388258934020996 -0.0955040156841278076
0.63222968578338623 2.74271154403686523 0.788592219352722168
-2.95356130599975586 4.13046789169311523 1.34518098831176758
0.0790043026208877563 2.09809613227844238 -0.410231024026870728
1.4196159839630127 3.71220803260803223 0.111673802137374878
-1.39311933517456055 2.03605365753173828 0.660939574241638184
0.0182723402976989746 0.842434227466583252 -0.468940228223800659
-2.24713611602783203 4.58420085906982422 0.168716639280319214
1.01967024803161621 4.12273979187011719 -0.304308772087097168
-0.785866498947143555 3.59724569320678711 0.308762788772583008
-0.637337863445281982 4.20641088485717773 0.755639016628265381
-0.200379684567451477 4.08373403549194336 0.0432796329259872437
-1.36342298984527588 2.78670287132263184 0.338831841945648193
-0.399151831865310669 2.80666899681091309 -0.157551944255828857
1.22658145427703857 3.29900884628295898 0.753059983253479004
1.30870413780212402 1.74140441417694092 -0.282349646091461182
0.965601682662963867 2.53272151947021484 0.516251206398010254
1.99091362953186035 4.69730663299560547 -0.169615611433982849
0.361888021230697632 4.29322528839111328 0.925164461135864258
-0.737987399101257324 2.29402780532836914 -0.0469281673431396484
0.216530978679656982 2.55360841751098633 0.941212356090545654
0.715690255165100098 1.62904095649719238 -0.296293288469314575
0.567630767822265625 2.68809795379638672 0.689016461372375488
-0.148120284080505371 1.64043378829956055 -0.564249634742736816
0.0890324860811233521 2.5393979549407959 0.831629753112792969
1.71306657791137695 3.04443836212158203 0.303945064544677734
-2.17556190490722656 3.71735334396362305 0.194542586803436279
3.11243987083435059 4.05007266998291016 -0.0456497371196746826
2.31782269477844238 3.2375953197479248 -0.194066911935806274
-0.988232970237731934 2.18555378913879395 0.0900628864765167236
1.32175731658935547 2.99601387977600098 0.574506878852844238
1.37863516807556152 3.96314501762390137 0.0953262150287628174
-0.503042340278625488 3.9053032398223877 0.550836920738220215
0.0733139365911483765 1.02139055728912354 -0.416142284870147705
0.352681219577789307 3.37120270729064941 -0.246706575155258179
-2.87537670135498047 3.99461603164672852 0.749188721179962158
-0.515655398368835449 3.55273842811584473 0.867465972900390625
0.00786422193050384521 2.95709681510925293 -0.183002620935440063
0.637468576431274414 3.11272048950195312 0.77808380126953125
-0.384282767772674561 2.13622212409973145 -0.205690369009971619
1.4530951976776123 3.7182469367980957 -0.272814691066741943
-0.975095987319946289 2.81164884567260742 0.267248570919036865
-0.732115745544433594 2.72964048385620117 0.680820107460021973
0.949376940727233887 3.38767457008361816 0.750530004501342773
0.150938645005226135 0.492112219333648682 -0.233403921127319336
0.618709921836853027 1.49516594409942627 -0.336633086204528809
-0.274450421333312988 2.7827153205871582 -0.138456165790557861
-2.98871517181396484 3.53659963607788086 0.9816245436668396
0.694923520088195801 1.5054013729095459 -0.324267387390136719
0.652389287948608398 2.8654170036315918 0.598926305770874023
0.223647892475128174 4.16049051284790039 0.0568418502807617188
0.294088244438171387 2.4303584098815918 0.680625319480895996
0.0613348186016082764 3.79166936874389648 0.927990436553955078
-0.57513195276260376 4.84375905990600586 0.566286683082580566
-0.172169744968414307 2.45279455184936523 0.724903225898742676
2.08145499229431152 3.70912671089172363 -0.0442483425140380859
-2.68320894241333008 3.76714468002319336 0.183497846126556396
-1.77931368350982666 4.70113372802734375 0.103698164224624634
-0.48736688494682312 1.82463264465332031 -0.303406238555908203
1.28359758853912354 3.9016871452331543 0.229478925466537476
-0.181348890066146851 4.06737661361694336 0.273871004581451416
0.79938119649887085 2.71489286422729492 0.718667089939117432
2.74222731590270996 3.90840244293212891 -0.254550307989120483
2.9015343189239502 3.28351521492004395 0.39295881986618042
-0.577901721000671387 3.63716411590576172 0.652057230472564697
1.15517067909240723 4.27730035781860352 0.0720127671957015991
-0.391304194927215576 2.75943946838378906 0.316781938076019287
1.31243491172790527 3.41052889823913574 0.547641277313232422
-0.595902681350708008 3.73999762535095215 0.214770615100860596
0.777198135852813721 4.5098114013671875 0.801812410354614258
2.30984067916870117 4.95370388031005859 0.107710510492324829
0.166506737470626831 2.47357940673828125 0.75838923454284668
1.94436764717102051 2.17289328575134277 -0.215181827545166016
0.737367630004882812 3.02360129356384277 0.773915588855743408
0.107999652624130249 3.04282999038696289 -0.23123796284198761
0.733067572116851807 3.10596370697021484 0.732784628868103027
-0.0405803322792053223 2.89009332656860352 1.12167930603027344
0.147124022245407104 0.976962268352508545 -0.490001499652862549
-0.11988416314125061 1.85118961334228516 -0.435673534870147705
0.486413329839706421 1.41525781154632568 -0.365950137376785278
1.23990845680236816 1.39106345176696777 -0.265681594610214233
0.577164351940155029 3.47914242744445801 0.840474247932434082
1.46244227886199951 3.72526240348815918 -0.0428463295102119446
0.649295628070831299 2.48227500915527344 0.689637422561645508
0.187463179230690002 3.0369410514831543 0.846930742263793945
-2.90695357322692871 3.30260539054870605 1.31002116203308105
0.174510717391967773 0.975204169750213623 -0.534166812896728516
1.33691573143005371 3.15965771675109863 0.460002303123474121
-0.139116644859313965 1.85204803943634033 -0.266496419906616211
-0.842535138130187988 3.51561927795410156 0.554631948471069336
-0.823669672012329102 2.17142581939697266 0.520867705345153809
-0.285961747169494629 2.6448969841003418 0.883224010467529297
-0.321699410676956177 2.88484811782836914 -0.0946662724018096924
0.723383545875549316 1.37689900398254395 -0.342771828174591064
-0.776639640331268311 3.84204363822937012 0.456622868776321411
1.37135493755340576 3.73818302154541016 -0.113209262490272522
-2.35561084747314453 4.44074058532714844 0.282707035541534424
2.17943716049194336 3.44191241264343262 -0.253949284553527832
1.25098502635955811 3.5545191764831543 0.540461421012878418
2.23826408386230469 2.79983234405517578 0.111798003315925598
1.48610806465148926 3.79092884063720703 0.0516625791788101196
-0.0769348219037055969 4.18201398849487305 0.759076118469238281
0.0600221157073974609 2.04784202575683594 0.674998164176940918
-0.11069682240486145 3.1759340763092041 0.895027875900268555
-0.396856188774108887 3.94617152214050293 0.786390066146850586
-0.97063446044921875 2.88655662536621094 0.533881843090057373
-1.19380462169647217 2.03571867942810059 0.417205959558486938
1.8025738000869751 3.82429718971252441 0.219417035579681396
0.721839666366577148 1.51836466789245605 -0.278018593788146973
0.336798548698425293 2.52359342575073242 0.739416182041168213
2.70639181137084961 4.20218706130981445 0.145705163478851318
-0.779597997665405273 4.41928386688232422 0.778785765171051025
-0.177363961935043335 2.5826263427734375 -0.170491322875022888
1.140708327293396 4.0163273811340332 0.718770623207092285
-0.582054018974304199 3.7630608081817627 0.697335660457611084
-1.15600955486297607 2.64989900588989258 0.269224345684051514
1.73083400726318359 2.81611323356628418 -0.139070093631744385
0.499328523874282837 2.41188287734985352 0.640204727649688721
-0.471197903156280518 4.13070154190063477 0.147106945514678955
-0.479883313179016113 4.02671480178833008 0.350025147199630737
-0.884268105030059814 2.76708126068115234 0.760132014751434326
0.276997417211532593 4.00948429107666016 0.149163305759429932
-2.84479260444641113 3.8429722785949707 1.06880176067352295
-0.0281461775302886963 2.82462239265441895 -0.251703023910522461
1.0843961238861084 2.95442056655883789 0.587064981460571289
1.08227014541625977 3.1936042308807373 0.396484315395355225
0.201035261154174805 3.3865807056427002 -0.345816761255264282
1.03965997695922852 2.96845555305480957 0.633343815803527832
0.0626179724931716919 2.42713093757629395 -0.279003620147705078
-0.125620722770690918 2.6817772388458252 -0.261584550142288208
-0.498791903257369995 2.45441889762878418 -0.136334985494613647
-0.729158699512481689 2.41752982139587402 0.594986915588378906
1.31941521167755127 3.80321168899536133 0.264604926109313965
2.23303699493408203 4.64970874786376953 0.0743441581726074219
1.48716902732849121 3.58068704605102539 0.294538021087646484
1.41080653667449951 3.80658292770385742 0.0726381540298461914
1.05624496936798096 2.93828153610229492 0.683645129203796387
-0.236411213874816895 2.16354608535766602 -0.226177766919136047
2.27190399169921875 4.80745458602905273 -0.0232154577970504761
-0.332576394081115723 0.625698626041412354 -0.44378429651260376
-0.674368143081665039 1.56794929504394531 -0.284166544675827026
-0.574318230152130127 2.06878209114074707 -0.253340810537338257
-1.46096789836883545 4.81514358520507812 0.0610575675964355469
2.77385997772216797 4.17687654495239258 -0.32211536169052124
-0.632508218288421631 4.08261442184448242 0.587747812271118164
0.73630833625793457 2.83562350273132324 0.750000596046447754
1.18529319763183594 3.43994688987731934 0.738138496875762939
1.17364716529846191 3.81799006462097168 0.361364901065826416
-2.97095060348510742 3.98792743682861328 0.759438157081604004
0.681901395320892334 1.60963475704193115 -0.325095117092132568
1.87982416152954102 2.51829361915588379 -0.181463032960891724
-0.00109571218490600586 2.5898735523223877 0.965247035026550293
0.723763883113861084 3.29602909088134766 0.721159875392913818
-0.696659088134765625 3.43264341354370117 0.490946948528289795
-0.611668884754180908 3.75533223152160645 0.696502804756164551
0.859871327877044678 2.85039973258972168 0.693094253540039062
0.451286286115646362 4.34366416931152344 0.755274057388305664
0.819726943969726562 1.49090921878814697 -0.330536544322967529
0.668871462345123291 3.08292508125305176 0.682638108730316162
0.370331227779388428 2.03566813468933105 0.692239642143249512
1.8785935640335083 3.91662287712097168 0.0306033864617347717
0.600016117095947266 3.9635927677154541 0.805682539939880371
1.42375087738037109 3.87932729721069336 -0.077573627233505249
-0.0394430160522460938 2.71148967742919922 0.811652064323425293
0.142599046230316162 1.08122992515563965 -0.401786357164382935
-2.89193201065063477 3.83922553062438965 0.269472658634185791
1.00855755805969238 2.77743029594421387 0.513767063617706299
-0.34568360447883606 1.50091063976287842 -0.434604763984680176
0.89927983283996582 2.7799079418182373 0.520208001136779785
0.180861830711364746 0.815420806407928467 -0.33029019832611084
0.651839375495910645 3.82466745376586914 0.00131848454475402832
0.62418675422668457 2.87673854827880859 0.784087419509887695
-0.924894213676452637 2.52464485168457031 0.463218718767166138
-1.16142880916595459 2.40805959701538086 0.685360908508300781
2.14509868621826172 2.46069121360778809 0.144978702068328857
0.130290612578392029 4.11827325820922852 -0.00911983847618103027
0.654342472553253174 1.59442687034606934 -0.350126773118972778
0.175839290022850037 3.19608449935913086 0.930941522121429443
0.186324343085289001 3.96607494354248047 0.930049538612365723
3.14110636711120605 3.89563775062561035 -0.23496343195438385
1.00037050247192383 1.64341068267822266 -0.349278777837753296
-0.791229188442230225 3.51315951347351074 0.811241805553436279
1.41676676273345947 3.15204024314880371 0.660771489143371582
0.147858679294586182 0.985608875751495361 -0.514472305774688721
-0.875807642936706543 2.66057133674621582 0.427016258239746094
0.876923978328704834 2.93099117279052734 0.765621304512023926
-0.79859691858291626 2.20262312889099121 0.722872138023376465
-0.717277824878692627 3.77022719383239746 0.358183413743972778
-2.81358885765075684 3.64212369918823242 1.28302288055419922
-0.236552655696868896 2.78199172019958496 1.12957620620727539
-0.913037598133087158 3.2844078540802002 0.652099549770355225
2.18740439414978027 4.69631481170654297 0.0657332837581634521
0.551652073860168457 2.29172539710998535 0.625134050846099854
0.765550553798675537 3.13094019889831543 0.809122085571289062
0.676851034164428711 1.53088808059692383 -0.303851962089538574
2.76472997665405273 3.62505698204040527 -0.328011304140090942
1.47020459175109863 3.81686186790466309 -0.0450087711215019226
0.616957008838653564 2.11910676956176758 0.531188666820526123
0.239887595176696777 2.30118322372436523 0.753396153450012207
2.58856964111328125 3.3569953441619873 -0.228604227304458618
-0.137431889772415161 2.78866791725158691 -0.251505047082901001
2.88405871391296387 3.75876259803771973 0.342806160449981689
2.47131609916687012 2.92534446716308594 -0.192279607057571411
1.93698620796203613 2.09052062034606934 -0.258752375841140747
-0.724519848823547363 5.08109474182128906 0.0448186695575714111
-1.25144422054290771 2.66896557807922363 0.385297060012817383
-0.263773441314697266 3.78333187103271484 0.954612314701080322
0.671911656856536865 1.40702283382415771 -0.302679181098937988
0.0212423205375671387 3.12622499465942383 -0.208051934838294983
0.160297378897666931 1.14078831672668457 -0.457643330097198486
0.700106382369995117 2.86500310897827148 0.796486735343933105
0.824934184551239014 3.90621185302734375 0.40468674898147583
-0.350426405668258667 4.07402181625366211 0.276402264833450317
-0.00544989109039306641 1.83318710327148438 -0.306069523096084595
0.300126522779464722 1.72717618942260742 0.643516302108764648
-0.619217634201049805 1.61703968048095703 -0.340100944042205811
0.0210538506507873535 1.04086041450500488 -0.522008657455444336
-0.864365220069885254 3.27859091758728027 0.536552071571350098
0.399353712797164917 2.69691061973571777 0.828488945960998535
-2.8365478515625 3.94125103950500488 0.462195545434951782
-0.266892939805984497 4.08587408065795898 0.819138526916503906
1.13683784008026123 3.1969447135925293 0.779978930950164795
-0.634170889854431152 3.70374178886413574 0.514432191848754883
0.82802879810333252 1.36056482791900635 -0.351223260164260864
0.830074131488800049 2.74896621704101562 0.683874309062957764
2.73944711685180664 4.60524177551269531 0.180029928684234619
-0.0210468769073486328 3.30180788040161133 1.14878547191619873
0.0550289154052734375 4.17703962326049805 0.615254580974578857
0.282862365245819092 1.14298999309539795 -0.398628950119018555
1.47348403930664062 3.84158825874328613 -0.0691438466310501099
1.03631389141082764 3.76960420608520508 -0.20694345235824585
-0.856925010681152344 2.97911834716796875 0.495534241199493408
-0.869998812675476074 3.3367464542388916 0.49388006329536438
-0.0782259702682495117 2.08866286277770996 -0.299853980541229248
-0.394958555698394775 4.03398036956787109 0.63125300407409668
-0.473091185092926025 3.83638596534729004 0.3260764479637146
2.71427202224731445 4.73190021514892578 0.0755400657653808594
1.46615052223205566 3.78585171699523926 0.187543481588363647
0.0621420145034790039 2.98405623435974121 -0.232301652431488037
2.2769618034362793 3.51111173629760742 -0.469824820756912231
-1.13019990921020508 2.61582279205322266 0.70801699161529541
2.1149442195892334 2.26540803909301758 0.0108064413070678711
0.901293158531188965 2.77275419235229492 0.438467085361480713
-0.664066851139068604 4.67071247100830078 0.81716078519821167
-2.30518007278442383 3.94660139083862305 0.183218836784362793
