ply
format ascii 1.0
element vertex 776
comment vertices
property float x
property float y
property float z
end_header
-0.542159557342529297 4.95203495025634766 0.428267598152160645
-1.38313138484954834 2.69132447242736816 0.232754215598106384
-0.191236510872840881 3.80698990821838379 1.294411301612854
0.634494662284851074 1.21034467220306396 -0.443073928356170654
0.516116738319396973 3.01281046867370605 -0.410467058420181274
0.137828230857849121 1.50714600086212158 -0.358888924121856689
0.704503834247589111 3.77216672897338867 1.27363324165344238
0.82935023307800293 4.84129810333251953 0.934884786605834961
-0.0165825095027685165 4.29145431518554688 0.340633988380432129
-0.639066338539123535 1.53609788417816162 -0.558683633804321289
0.0244602207094430923 2.11005306243896484 1.18739616870880127
-0.803116381168365479 1.28033912181854248 -0.0864586681127548218
-0.346194237470626831 0.797563791275024414 -0.320312410593032837
-0.958842158317565918 3.43054318428039551 0.629945874214172363
0.312552660703659058 3.41775059700012207 1.27543866634368896
-2.69454002380371094 4.14255952835083008 0.760692477226257324
-0.0889773145318031311 4.0635523796081543 1.03503012657165527
1.2281501293182373 3.98959708213806152 1.25251686573028564
-0.750399351119995117 3.71080636978149414 0.584693968296051025
1.03867673873901367 1.32851731777191162 -0.627984285354614258
1.01176071166992188 3.15467023849487305 1.21463561058044434
2.70717239379882812 4.12927341461181641 0.787604451179504395
-0.305077135562896729 3.33600568771362305 1.27655041217803955
0.295129120349884033 4.49280309677124023 0.974040746688842773
0.273383378982543945 1.14729714393615723 -0.648340165615081787
1.37230050563812256 3.53963303565979004 -0.0545142777264118195
1.12596786022186279 3.92009544372558594 -0.311157375574111938
-1.17851924896240234 3.08074498176574707 0.4927176833152771
-0.9670981764793396 3.49226832389831543 0.227551102638244629
-0.58602064847946167 1.72994649410247803 -0.338162362575531006
-0.389671444892883301 4.14430046081542969 0.888665735721588135
-0.153872773051261902 4.11945056915283203 0.49291190505027771
2.85564017295837402 4.06801462173461914 0.544589877128601074
1.24713790416717529 3.6815800666809082 0.48413434624671936
0.65710371732711792 3.09190034866333008 0.0989003702998161316
2.86129999160766602 4.03169155120849609 -0.663912355899810791
-1.24341130256652832 2.63041496276855469 1.08757281303405762
2.16184830665588379 2.63488292694091797 -0.221629872918128967
2.07614707946777344 2.6381070613861084 0.840723812580108643
-0.886514842510223389 4.49852418899536133 1.40163350105285645
-2.36169862747192383 3.89295196533203125 0.493482202291488647
0.498389512300491333 2.90932846069335938 1.23735940456390381
-1.10601246356964111 3.03423404693603516 0.988531351089477539
-0.873235404491424561 2.19405937194824219 1.14109432697296143
0.317056745290756226 2.82939291000366211 -0.170951172709465027
1.32840228080749512 3.75035524368286133 1.23072445392608643
-1.38691556453704834 2.48678135871887207 0.686439394950866699
-1.88149750232696533 4.60807895660400391 0.474949896335601807
-0.214036807417869568 2.27636075019836426 -0.0836009979248046875
-0.355120182037353516 2.39746928215026855 1.20712053775787354
-0.366293817758560181 2.0169074535369873 -0.518506705760955811
-0.0536967329680919647 1.26330852508544922 -0.357697576284408569
2.6880033016204834 4.21599483489990234 -0.00499469228088855743
1.77955961227416992 3.53355050086975098 1.09259819984436035
1.46281599998474121 3.25416660308837891 0.612978935241699219
-1.16202783584594727 2.84598588943481445 0.657470107078552246
0.952612817287445068 4.65151882171630859 1.29500460624694824
1.2300715446472168 1.77180981636047363 -0.673799693584442139
1.19925034046173096 4.63222122192382812 0.883535146713256836
1.0883486270904541 3.53545761108398438 1.2355954647064209
2.25831055641174316 2.85091352462768555 -0.395165085792541504
0.00323758251033723354 2.51360106468200684 -0.0863580852746963501
-1.37334609031677246 1.90060830116271973 0.965958774089813232
-0.754830896854400635 3.06825757026672363 1.23952376842498779
1.4565730094909668 3.37569308280944824 0.115976393222808838
1.46893107891082764 4.17747879028320312 1.04425215721130371
2.0117647647857666 3.1553494930267334 0.856035172939300537
0.542870104312896729 3.26724505424499512 1.25797998905181885
-0.576260983943939209 3.89042329788208008 1.22138166427612305
0.873957991600036621 1.24958622455596924 -0.288675218820571899
1.37584853172302246 3.11423969268798828 1.17693197727203369
1.69672465324401855 3.49418210983276367 0.525724112987518311
1.75648403167724609 2.76613140106201172 1.09125363826751709
0.0666968077421188354 0.609202444553375244 -0.326940327882766724
2.00204181671142578 2.4401090145111084 -0.633084952831268311
-1.5220102071762085 2.26806426048278809 0.196149349212646484
0.746824145317077637 1.82908797264099121 -0.344540566205978394
1.08382642269134521 4.35991430282592773 -0.129129841923713684
0.847857534885406494 2.44706845283508301 1.16831469535827637
0.920712769031524658 2.91765260696411133 1.20633435249328613
-0.598237693309783936 2.56608319282531738 1.20689606666564941
-0.536184132099151611 4.89745569229125977 0.85289686918258667
-0.359432041645050049 3.00060844421386719 1.2548525333404541
2.4235990047454834 4.24749183654785156 1.04162538051605225
2.15244626998901367 2.61521244049072266 0.343905091285705566
-0.784734129905700684 1.24591720104217529 -0.352773338556289673
2.60673260688781738 4.26067495346069336 0.22714310884475708
-0.188158422708511353 3.56299591064453125 1.2874305248260498
1.65801048278808594 3.79719662666320801 1.11113977432250977
1.01445114612579346 1.57205939292907715 -0.679783225059509277
-0.515698850154876709 1.81167125701904297 0.113753281533718109
-0.503859162330627441 4.11776018142700195 0.268307238817214966
0.573021650314331055 4.78369617462158203 0.889757990837097168
1.00143337249755859 1.88255429267883301 1.07275664806365967
0.212960407137870789 0.990051746368408203 -0.343664109706878662
0.146592617034912109 3.67135119438171387 1.29178738594055176
1.83392608165740967 3.53307032585144043 0.807826817035675049
1.16506016254425049 3.84907150268554688 0.250799894332885742
2.23591113090515137 2.83184552192687988 0.55355679988861084
0.663445711135864258 4.25692033767700195 1.2960963249206543
1.94158506393432617 3.54685139656066895 0.340358555316925049
-0.648755550384521484 1.65141701698303223 -0.127168267965316772
-0.0623577013611793518 3.22756028175354004 1.27328979969024658
2.54607963562011719 3.57455801963806152 -0.664860665798187256
-1.15031301975250244 3.17822933197021484 0.274863302707672119
0.603969693183898926 1.21795129776000977 -0.682495415210723877
1.26598095893859863 4.48805904388427734 1.13252246379852295
-1.53296113014221191 2.36613035202026367 0.552221775054931641
2.92907261848449707 3.72189784049987793 -0.639353573322296143
-0.752499878406524658 4.45975112915039062 1.09367847442626953
-0.100278563797473907 2.35922670364379883 -0.528250753879547119
0.106216281652450562 0.48795512318611145 0.0248574744910001755
0.435155034065246582 1.202301025390625 -0.337574958801269531
2.0732269287109375 2.77999353408813477 -0.65539860725402832
2.01394963264465332 2.80717134475708008 1.0010230541229248
-0.45370638370513916 1.94612979888916016 -0.315864652395248413
0.573780417442321777 4.68918752670288086 1.30549168586730957
0.633475780487060547 3.13260674476623535 -0.256072908639907837
1.35989201068878174 3.50762724876403809 0.403082400560379028
1.44793188571929932 1.76475405693054199 -0.637665152549743652
0.666902661323547363 3.29790616035461426 0.191444560885429382
0.0974310487508773804 3.02574872970581055 1.25819694995880127
1.58259809017181396 2.23807072639465332 -0.665512442588806152
-0.507349789142608643 2.10640263557434082 1.16537833213806152
-0.00542338425293564796 4.21061849594116211 0.843026518821716309
-0.724522173404693604 3.36829972267150879 0.953712046146392822
0.435116171836853027 2.23719477653503418 1.18473160266876221
-0.72915184497833252 1.39777874946594238 0.0811415314674377441
-0.398258209228515625 2.04768562316894531 -0.104313470423221588
1.13397645950317383 4.81092357635498047 0.518654942512512207
-2.83075547218322754 4.01782035827636719 0.918663561344146729
-1.44743835926055908 2.03950119018554688 0.780432164669036865
0.736280500888824463 3.22957611083984375 -0.0573912188410758972
0.659611642360687256 1.03876399993896484 -0.569779157638549805
0.249120384454727173 2.72412109375 -0.590590059757232666
-0.134160950779914856 2.67077326774597168 1.23715031147003174
0.0560635589063167572 2.56039667129516602 -0.288163840770721436
3.06317520141601562 3.90508103370666504 0.606052160263061523
0.28256458044052124 3.98869228363037109 1.29948687553405762
-1.11742901802062988 2.84443235397338867 0.866038918495178223
-0.853551626205444336 3.66122770309448242 0.290609747171401978
0.655051171779632568 1.56483066082000732 -0.721150040626525879
-0.715108692646026611 1.33782553672790527 -0.546798408031463623
0.154846474528312683 4.45259380340576172 0.44837421178817749
-1.54017996788024902 1.94433832168579102 0.407712250947952271
2.43343710899353027 4.36322641372680664 -0.201595574617385864
0.830681264400482178 3.60293889045715332 1.25917923450469971
1.16233515739440918 4.12062215805053711 -0.36612778902053833
0.276448696851730347 2.86173081398010254 1.24423813819885254
-0.335572302341461182 4.13543367385864258 0.6809958815574646
0.0267390962690114975 4.15195083618164062 1.18543553352355957
-0.981171607971191406 3.21419429779052734 0.613065183162689209
-0.38905709981918335 3.92281770706176758 0.971299290657043457
-0.690642237663269043 3.69794678688049316 0.854287266731262207
-1.30296063423156738 2.20391130447387695 0.895564556121826172
-1.04688000679016113 2.59673762321472168 1.14748108386993408
1.93449568748474121 2.3504033088684082 0.999644339084625244
-1.4642024040222168 1.81304705142974854 0.80117344856262207
0.020679619163274765 1.07035243511199951 -0.351249098777770996
-0.92071831226348877 2.96609616279602051 1.17014086246490479
3.02985811233520508 3.84996318817138672 0.998870909214019775
-2.56482219696044922 4.26398706436157227 0.490000218152999878
0.556702613830566406 3.02247500419616699 -0.683919131755828857
1.80018055438995361 3.15491628646850586 1.13250243663787842
0.5514487624168396 4.81050491333007812 0.55280381441116333
-0.859820306301116943 3.38857388496398926 1.1280592679977417
-2.88411974906921387 3.88072586059570312 1.27350711822509766
0.716844141483306885 2.18252921104431152 1.15578293800354004
1.21163105964660645 3.66026711463928223 0.767528831958770752
-0.495986282825469971 3.40774226188659668 1.27170372009277344
0.373202234506607056 2.86878728866577148 -0.445223748683929443
-0.0973858758807182312 3.97940278053283691 1.23988747596740723
-1.19993770122528076 1.81600415706634521 1.03053092956542969
-0.529946327209472656 4.07367181777954102 0.526042938232421875
0.274741828441619873 4.53839635848999023 0.607560455799102783
1.06681573390960693 4.78761053085327148 0.969892442226409912
1.40393257141113281 2.02977299690246582 1.03160500526428223
1.33771336078643799 2.79939818382263184 1.15080785751342773
0.465627193450927734 2.49313521385192871 1.20803022384643555
-1.26471900939941406 2.87948751449584961 0.487820297479629517
1.12438821792602539 4.52308225631713867 1.26996421813964844
0.0885222777724266052 2.54544854164123535 0.10554581880569458
2.46920251846313477 4.30796527862548828 0.586919724941253662
-1.41436612606048584 2.52434134483337402 0.487466007471084595
-1.00348579883575439 3.40213274955749512 0.439325481653213501
-0.101938582956790924 2.26123690605163574 1.20282113552093506
-0.0380722545087337494 4.22265958786010742 0.61531829833984375
1.19133639335632324 2.19698882102966309 1.09576785564422607
1.27343356609344482 3.70288753509521484 -0.00438681384548544884
0.566077291965484619 1.75096511840820312 -0.350568473339080811
1.30396127700805664 2.40468454360961914 1.10819542407989502
0.412370413541793823 1.74949181079864502 -0.217625543475151062
2.92137718200683594 4.05743265151977539 0.052875276654958725
0.744706511497497559 1.94672322273254395 -0.136070773005485535
-0.420095145702362061 0.611921846866607666 -0.342898637056350708
-1.48423492908477783 2.30006670951843262 0.787493407726287842
-1.43957781791687012 2.08908867835998535 0.591511785984039307
1.65547049045562744 3.02418279647827148 1.13573217391967773
-0.231441795825958252 2.21836137771606445 -0.438891738653182983
1.73715865612030029 2.37029671669006348 1.0361860990524292
0.718961477279663086 2.86250686645507812 1.21744585037231445
-1.47506880760192871 1.79220187664031982 0.290881544351577759
0.433877348899841309 3.03472614288330078 0.147404938936233521
1.8116682767868042 3.65336823463439941 0.134172588586807251
-0.96493840217590332 3.13456439971923828 0.902385532855987549
0.308368861675262451 1.41663944721221924 -0.350763410329818726
-1.34939277172088623 2.28244948387145996 0.505651652812957764
0.187812820076942444 4.41862154006958008 0.832324326038360596
1.14590299129486084 3.81827688217163086 0.574486434459686279
-0.737613141536712646 1.46462821960449219 -0.0989033281803131104
0.167885616421699524 2.55575251579284668 1.22625982761383057
-0.880920827388763428 2.74671149253845215 1.20073747634887695
0.783643424510955811 1.43154525756835938 -0.313751250505447388
-0.581782877445220947 3.7329404354095459 0.420129626989364624
0.862201690673828125 1.26063644886016846 -0.479406058788299561
1.85689175128936768 3.6871035099029541 -0.0917304009199142456
1.83145296573638916 3.6552886962890625 0.515320360660552979
-0.544619262218475342 2.95687150955200195 1.2435678243637085
0.0895582139492034912 2.57523679733276367 -0.478988915681838989
-1.27556324005126953 2.93864822387695312 0.233255043625831604
-1.04006278514862061 3.04711747169494629 0.357382297515869141
0.4099750816822052 0.876852095127105713 -0.320991456508636475
-0.415709435939788818 3.98456001281738281 0.769443273544311523
-0.164541721343994141 0.747059881687164307 -0.333660989999771118
0.400642156600952148 4.14735174179077148 1.30204319953918457
2.25868535041809082 2.8238370418548584 0.130470678210258484
0.535192370414733887 1.02091825008392334 -0.318093925714492798
0.473470181226730347 4.32463264465332031 1.30646586418151855
1.18299078941345215 1.81154406070709229 1.0279998779296875
1.48726081848144531 2.69156789779663086 1.11923456192016602
2.54284286499023438 4.20941925048828125 0.902629256248474121
-1.0687258243560791 2.15516781806945801 1.11065447330474854
-2.84436607360839844 3.84054756164550781 1.46961760520935059
1.13195502758026123 4.85541248321533203 0.235840633511543274
-0.650260329246520996 3.53042292594909668 1.00798118114471436
2.91513323783874512 4.04876041412353516 -0.330963313579559326
0.169222995638847351 2.6812591552734375 -0.200118854641914368
1.61154377460479736 3.42787337303161621 0.361429363489151001
-0.204313710331916809 2.2341620922088623 0.124400228261947632
-0.931096971035003662 1.22731244564056396 0.111957840621471405
0.459851592779159546 4.76027393341064453 0.287614494562149048
-1.2557070255279541 2.59975576400756836 0.329552799463272095
0.187603205442428589 3.23670601844787598 1.26922869682312012
-2.72023248672485352 4.16556167602539062 0.498429328203201294
0.916915357112884521 1.62158691883087158 -0.159450903534889221
-0.843733549118041992 1.10094046592712402 -0.0899956673383712769
2.00093698501586914 2.97034740447998047 0.918451905250549316
-0.489143818616867065 4.26699447631835938 0.692550241947174072
2.77992486953735352 4.04931306838989258 0.935458660125732422
-1.38146781921386719 2.24852585792541504 0.311668127775192261
-0.756697237491607666 3.24577999114990234 1.19588136672973633
1.41921472549438477 3.45408439636230469 -0.208694860339164734
-1.23711097240447998 2.30328726768493652 1.06692409515380859
-1.20643794536590576 2.7959904670715332 1.02353525161743164
1.0959935188293457 2.54002904891967773 1.15251374244689941
-0.251700490713119507 2.83211255073547363 1.24478137493133545
2.2364809513092041 2.80511116981506348 -0.581562995910644531
1.15806806087493896 2.76647186279296875 1.17004644870758057
1.61861491203308105 3.44291424751281738 -0.20801997184753418
1.42339015007019043 3.40029120445251465 1.19641327857971191
0.634411990642547607 3.30567836761474609 0.395540207624435425
1.6325078010559082 3.45354175567626953 0.135016635060310364
0.51319199800491333 3.08862829208374023 1.24775314331054688
-0.333054840564727783 4.10440969467163086 0.481387197971343994
2.56659936904907227 4.23070478439331055 0.716732978820800781
0.776454508304595947 1.97647655010223389 1.11691129207611084
-0.81778252124786377 1.53731644153594971 0.151164576411247253
-0.436514705419540405 1.95897221565246582 0.0487367138266563416
-1.43325221538543701 2.07216262817382812 0.29213222861289978
-0.797434210777282715 2.35404419898986816 1.16852307319641113
-0.55004584789276123 4.06710243225097656 1.22866630554199219
1.58825492858886719 2.10066890716552734 1.01288628578186035
-0.708158016204833984 1.75655341148376465 0.139426335692405701
1.79421782493591309 3.34052419662475586 1.13580870628356934
0.813439249992370605 4.89565610885620117 0.608988165855407715
0.229973793029785156 4.35481786727905273 1.24335658550262451
-0.417330414056777954 3.81185722351074219 1.22381162643432617
1.72681546211242676 2.45994234085083008 -0.673202276229858398
-1.55219674110412598 1.93434631824493408 0.932689964771270752
1.00813913345336914 4.14127635955810547 1.26088643074035645
-0.77789074182510376 3.45108842849731445 0.601010501384735107
1.3739854097366333 3.56768441200256348 1.21304523944854736
0.988739669322967529 4.76794862747192383 1.13536703586578369
1.25580298900604248 4.66498994827270508 0.447656005620956421
0.200627967715263367 2.19385862350463867 1.19297122955322266
0.892703235149383545 2.27238965034484863 1.14414310455322266
-1.3425595760345459 2.75023531913757324 0.39424288272857666
1.19652605056762695 3.82288622856140137 -0.149456217885017395
2.85808968544006348 4.08650016784667969 0.363095998764038086
0.844889640808105469 3.19979119300842285 1.23200833797454834
0.408536523580551147 3.56382513046264648 1.27928602695465088
0.788156092166900635 1.21170353889465332 -0.658897280693054199
1.3925323486328125 3.34717392921447754 0.741529643535614014
0.468661248683929443 3.2200016975402832 0.164033740758895874
1.92779946327209473 3.16428971290588379 1.01590752601623535
0.63949507474899292 4.82031536102294922 1.04504549503326416
-0.20265062153339386 2.28020739555358887 -0.262032240629196167
1.16382050514221191 4.73072957992553711 0.678144335746765137
-0.635195016860961914 3.8831024169921875 0.538236796855926514
-1.3259892463684082 2.52942085266113281 0.842046558856964111
0.534949064254760742 3.74166536331176758 1.28106582164764404
0.993379175662994385 1.74095213413238525 -0.707440018653869629
2.2091376781463623 2.77081584930419922 0.71232151985168457
1.18090605735778809 3.12912726402282715 1.19738662242889404
0.436005592346191406 2.94353866577148438 -0.247592076659202576
0.762761116027832031 1.13664877414703369 -0.356846004724502563
-0.626371264457702637 3.76979374885559082 0.710106313228607178
-1.05669510364532471 3.34856772422790527 0.249924197793006897
-0.243538901209831238 4.02296257019042969 0.91030728816986084
-0.861160993576049805 1.98394656181335449 1.11173105239868164
-0.225352302193641663 3.18108177185058594 1.27002823352813721
-0.637224733829498291 3.95783901214599609 0.276642441749572754
2.7320106029510498 4.18359756469726562 -0.183383509516716003
3.0978388786315918 3.92350172996520996 -0.0976116806268692017
-0.874706089496612549 3.37863755226135254 0.33222198486328125
1.03210008144378662 3.32491278648376465 1.2250373363494873
0.997774958610534668 3.97258758544921875 1.26600205898284912
-0.678342580795288086 1.23918354511260986 -0.679712593555450439
2.92674636840820312 4.02172279357910156 -0.509805560111999512
1.17336225509643555 4.27688932418823242 -0.248274862766265869
-1.47122418880462646 2.26184558868408203 0.956620872020721436
-0.906575679779052734 3.53693008422851562 0.389688938856124878
0.539169728755950928 2.73595905303955078 1.22196733951568604
-1.20500814914703369 2.46846103668212891 1.09079658985137939
1.54445731639862061 1.90029942989349365 -0.637113988399505615
-0.219155445694923401 3.95693874359130859 1.12975692749023438
0.84157097339630127 4.506072998046875 1.29721856117248535
1.11943113803863525 3.9685218334197998 0.145746827125549316
-2.75858569145202637 3.81767654418945312 1.67796039581298828
0.650794148445129395 3.13829135894775391 -0.434998512268066406
0.0459248311817646027 2.3770143985748291 1.21371781826019287
-0.434434562921524048 2.83434629440307617 1.23904740810394287
-3.0308384895324707 3.94152212142944336 0.527656257152557373
0.702593386173248291 3.30594491958618164 1.24938118457794189
1.76559090614318848 3.57904195785522461 0.648734331130981445
1.38194501399993896 4.30890512466430664 1.10773348808288574
1.7508549690246582 2.57937836647033691 1.06647121906280518
-0.57600855827331543 1.68755745887756348 -0.497813403606414795
-1.08852660655975342 3.26298260688781738 0.421356737613677979
0.687965452671051025 1.64345872402191162 -0.329044133424758911
0.0995680689811706543 4.06857204437255859 1.30623078346252441
1.61259686946868896 2.26399874687194824 1.03799629211425781
1.39395737648010254 4.11499404907226562 1.23338425159454346
2.54410886764526367 4.30326938629150391 -0.0968636423349380493
-0.108043812215328217 2.39666509628295898 -0.0425899624824523926
0.404677927494049072 4.55340147018432617 1.17058873176574707
-0.489670425653457642 1.85449445247650146 -0.445995241403579712
-0.40764203667640686 2.24458146095275879 1.18864333629608154
1.34999954700469971 1.87498295307159424 1.0106886625289917
-0.0763236060738563538 2.82172751426696777 1.2469027042388916
2.05395770072937012 2.51920366287231445 0.969963312149047852
0.507123291492462158 4.74363183975219727 0.747431278228759766
1.61809110641479492 3.44179987907409668 -0.0366975255310535431
0.834238409996032715 4.86983299255371094 0.767316162586212158
2.00324487686157227 3.3446953296661377 0.875704348087310791
1.16822624206542969 3.73246884346008301 1.24254226684570312
0.971967875957489014 4.86850643157958984 0.594075441360473633
0.840015530586242676 1.7391279935836792 -0.249301895499229431
-0.666290044784545898 3.61745190620422363 0.347133427858352661
-0.176440328359603882 0.907186150550842285 -0.342843383550643921
1.99234676361083984 3.60564661026000977 -0.0640741810202598572
-0.627982854843139648 3.61151576042175293 1.21083402633666992
2.5291435718536377 3.19281601905822754 -0.6392478346824646
0.330734193325042725 1.27749300003051758 -0.721914172172546387
0.89749610424041748 1.29276418685913086 -0.136306941509246826
0.397331565618515015 4.60419559478759766 0.921826422214508057
-1.04531359672546387 3.0625007152557373 1.14286625385284424
0.654211521148681641 1.33311843872070312 -0.342718154191970825
-0.861113846302032471 3.46400713920593262 0.816658556461334229
1.03307020664215088 2.19741702079772949 1.11680781841278076
-2.91553592681884766 3.56467700004577637 1.6596686840057373
-0.693992853164672852 2.16386985778808594 1.15615582466125488
-1.10451483726501465 2.98789381980895996 0.598219454288482666
-1.24002194404602051 2.75854086875915527 0.218959048390388489
1.05304384231567383 2.03881382942199707 1.08933830261230469
-0.617721319198608398 3.83670210838317871 0.877251386642456055
0.878230929374694824 1.49199724197387695 -0.691119968891143799
-0.358373910188674927 4.15276241302490234 0.319785743951797485
1.32942402362823486 1.64615786075592041 -0.633816421031951904
-0.610511183738708496 1.72359979152679443 0.0102097494527697563
-0.0222005452960729599 2.46230077743530273 -0.434646338224411011
-0.655224263668060303 1.58474886417388916 -0.381122976541519165
1.40745162963867188 3.38303470611572266 0.541064321994781494
-0.983062148094177246 3.24779510498046875 1.01963126659393311
2.34421586990356445 3.31513142585754395 -0.663737118244171143
1.68486583232879639 3.64373159408569336 1.16120076179504395
0.620153486728668213 2.52081704139709473 1.19755196571350098
1.38312149047851562 3.49782013893127441 0.227912858128547668
0.403170257806777954 4.67185354232788086 0.58114856481552124
1.84860384464263916 3.67064690589904785 0.317449122667312622
0.262519866228103638 2.71754288673400879 0.11268162727355957
0.849736928939819336 2.76033687591552734 1.20015358924865723
-2.6617128849029541 3.9212641716003418 1.59341490268707275
0.482270807027816772 1.57985830307006836 -0.387433469295501709
1.24172747135162354 3.72221994400024414 0.321909338235855103
-0.772339224815368652 4.44170618057250977 1.24711596965789795
1.55148136615753174 3.3552711009979248 0.488924026489257812
1.54159963130950928 3.77561616897583008 1.21217632293701172
-0.517671763896942139 2.69738984107971191 1.2239147424697876
-0.517815828323364258 4.23182010650634766 0.937513351440429688
0.153816848993301392 0.846954941749572754 -0.340148568153381348
2.46772098541259766 4.34443187713623047 0.190433502197265625
-1.25961089134216309 2.60783839225769043 0.68278127908706665
0.731538057327270508 3.4843745231628418 1.25902199745178223
-0.726009011268615723 3.78295564651489258 0.443685382604598999
0.468976020812988281 3.4028465747833252 1.26987671852111816
-0.7796364426612854 1.24803256988525391 0.0931483432650566101
2.1781315803527832 2.72312760353088379 -0.0677479207515716553
1.45210862159729004 2.49975848197937012 1.09870374202728271
-0.76993483304977417 2.91592001914978027 1.22634494304656982
-0.817773818969726562 1.18673813343048096 -0.215107232332229614
1.26433169841766357 4.52352285385131836 0.969982802867889404
0.60873568058013916 1.36988842487335205 -0.702719032764434814
0.376239150762557983 2.89213204383850098 -0.0445420406758785248
-0.506932914257049561 2.41456222534179688 1.19856357574462891
0.31043282151222229 2.48468518257141113 1.21571028232574463
1.50570762157440186 2.06903433799743652 -0.664271533489227295
-0.700763940811157227 1.4508281946182251 -0.445168495178222656
-0.00996287539601325989 2.57833266258239746 1.23098468780517578
-0.118751473724842072 3.41468596458435059 1.28238570690155029
-0.249651044607162476 2.22786879539489746 1.19562911987304688
-1.55054724216461182 2.10090231895446777 0.19662630558013916
0.358202815055847168 1.06552588939666748 -0.337041914463043213
-0.00472326204180717468 3.66705608367919922 1.2902761697769165
-1.37855672836303711 2.09449458122253418 0.999983787536621094
0.126384854316711426 4.26621437072753906 1.17762565612792969
2.75488734245300293 3.63131618499755859 -0.649605453014373779
-0.0923049524426460266 4.21552419662475586 0.234724327921867371
1.65854167938232422 3.86685299873352051 0.929955899715423584
2.81706357002258301 4.0728449821472168 0.689989626407623291
2.29166078567504883 2.93114399909973145 -0.642417788505554199
-2.80671024322509766 3.99831104278564453 1.0657804012298584
-0.329867303371429443 3.50826120376586914 1.28427803516387939
1.39730358123779297 2.95597147941589355 1.15914261341094971
1.59479069709777832 3.93068885803222656 1.08500874042510986
0.912634909152984619 1.49169135093688965 -0.238573059439659119
-0.648471534252166748 1.39463067054748535 -0.688975691795349121
0.232217356562614441 3.83594465255737305 1.29516720771789551
-0.961206734180450439 2.44676613807678223 1.16237294673919678
0.251772642135620117 3.5540320873260498 1.28419160842895508
0.709685146808624268 4.87598991394042969 0.849158525466918945
0.151634514331817627 2.61614036560058594 -0.622968018054962158
1.22286093235015869 4.37514877319335938 1.25952780246734619
3.05730175971984863 3.87216019630432129 0.811961174011230469
1.83397674560546875 3.46439599990844727 0.939878404140472412
-0.771622836589813232 1.34623408317565918 -0.231258243322372437
1.17601442337036133 4.78029584884643555 0.379435747861862183
1.52144348621368408 3.08412909507751465 1.15824508666992188
0.848399639129638672 3.80741190910339355 1.26749086380004883
1.89929473400115967 2.73576688766479492 1.06631040573120117
0.402399063110351562 3.22077775001525879 1.26298272609710693
0.0867518410086631775 1.32063877582550049 -0.355155497789382935
-0.308897435665130615 2.16056251525878906 -0.145898327231407166
2.56044745445251465 4.27502250671386719 0.410234391689300537
0.613858699798583984 3.1149601936340332 -0.0405932515859603882
0.408047854900360107 3.91112422943115234 1.29274976253509521
0.761479437351226807 3.19567036628723145 0.109791472554206848
2.80983257293701172 3.80716156959533691 -0.654000341892242432
0.579378604888916016 4.73493862152099609 1.16116344928741455
0.822104692459106445 2.60517287254333496 1.18824481964111328
1.22888219356536865 3.49480628967285156 1.22138833999633789
1.61857891082763672 3.38715815544128418 1.17574119567871094
-0.948478400707244873 3.21564054489135742 0.780962169170379639
1.75704216957092285 2.92106223106384277 1.1108475923538208
0.47180214524269104 4.7571263313293457 0.433954358100891113
0.299755871295928955 2.80391669273376465 -0.328858435153961182
-0.415805608034133911 1.9102013111114502 -0.613277554512023926
0.680244207382202148 3.97089767456054688 1.28428089618682861
1.21483361721038818 3.78785157203674316 0.121161706745624542
-0.407923102378845215 2.53363347053527832 1.21564698219299316
0.929957032203674316 1.22998642921447754 -0.628038465976715088
1.99389314651489258 2.6371769905090332 -0.652971506118774414
-1.10965311527252197 2.01759910583496094 1.08278369903564453
1.73886334896087646 2.16697001457214355 -0.639235556125640869
0.454170703887939453 2.0382080078125 1.16145467758178711
-0.401418328285217285 3.14802026748657227 1.26428759098052979
-0.63742983341217041 3.32140326499938965 1.23161399364471436
1.47141122817993164 1.8047034740447998 0.972805202007293701
-0.688983619213104248 3.63887453079223633 0.711311221122741699
1.00155198574066162 3.65064334869384766 1.24990189075469971
-0.702128827571868896 2.46660757064819336 1.18933200836181641
0.794385671615600586 4.1955561637878418 1.2873539924621582
2.16613054275512695 2.68220901489257812 0.206544965505599976
2.71401000022888184 4.18908262252807617 0.292805761098861694
2.81534099578857422 4.13190984725952148 -0.0342655368149280548
0.273206651210784912 4.51303720474243164 0.764563560485839844
-0.968901276588439941 3.37326264381408691 0.779279828071594238
-1.38464999198913574 2.39424824714660645 0.831085026264190674
-0.550681769847869873 3.85170698165893555 0.342234015464782715
2.03994250297546387 2.66180634498596191 0.980721056461334229
0.812333822250366211 4.8143620491027832 1.07797622680664062
-1.27098572254180908 2.6597590446472168 0.948456525802612305
-0.279452383518218994 0.663491785526275635 -0.315201729536056519
-1.48422682285308838 2.38577032089233398 0.268510282039642334
-2.79654312133789062 3.63682746887207031 1.69326102733612061
0.186443805694580078 4.3864130973815918 0.971761703491210938
0.517108380794525146 3.01859927177429199 0.0321852304041385651
0.73105013370513916 4.69069576263427734 1.30591166019439697
-0.110299281775951385 4.07782793045043945 0.893736064434051514
-1.05363690853118896 2.97463560104370117 0.870441079139709473
-1.12099730968475342 2.93037772178649902 1.11439025402069092
0.802213490009307861 1.18633174896240234 -0.158815637230873108
0.95219123363494873 4.83179235458374023 0.864358425140380859
1.15815198421478271 1.64985036849975586 -0.666511416435241699
1.83508932590484619 3.68147420883178711 -0.231156587600708008
0.137759596109390259 2.89065098762512207 1.24996304512023926
0.073521345853805542 4.39081954956054688 0.296503007411956787
-0.11841699481010437 1.13502264022827148 -0.353646129369735718
-0.911322951316833496 3.52007365226745605 0.529619693756103516
0.66962820291519165 3.63557577133178711 1.27058541774749756
0.189362511038780212 2.88269925117492676 0.140020579099655151
0.172359317541122437 3.43119716644287109 1.28045666217803955
-0.0495315119624137878 0.630416035652160645 -0.250196188688278198
3.03894615173339844 3.96535015106201172 0.202003389596939087
-0.732801258563995361 2.62181448936462402 1.20204734802246094
0.753795146942138672 2.33160567283630371 1.16843390464782715
2.57692909240722656 4.28411483764648438 0.0761309117078781128
0.570727109909057617 3.0558781623840332 -0.532184243202209473
1.33743810653686523 3.59295153617858887 0.0808748751878738403
1.5225062370300293 4.06201553344726562 1.10201048851013184
-0.204812496900558472 4.07725000381469727 0.63277202844619751
1.23357915878295898 4.626708984375 0.739970803260803223
0.319218248128890991 0.914521515369415283 -0.503796935081481934
2.24361538887023926 3.0613405704498291 -0.656445801258087158
-0.583170175552368164 1.76172327995300293 -0.202450141310691833
1.15405142307281494 3.8454287052154541 0.39634433388710022
0.27721327543258667 2.79510951042175293 -0.0364250503480434418
0.337526917457580566 4.29589939117431641 1.30796432495117188
1.97137773036956787 3.53473973274230957 0.824958920478820801
-0.102573387324810028 4.191375732421875 0.382345497608184814
0.734994292259216309 3.22393441200256348 -0.355203956365585327
-1.43088257312774658 1.76615512371063232 0.926917850971221924
-0.504867732524871826 4.83913946151733398 1.15231931209564209
2.14919161796569824 2.67832064628601074 0.466432243585586548
0.883911609649658203 3.05001378059387207 1.21770012378692627
2.10130000114440918 3.02673792839050293 0.835486412048339844
0.459312349557876587 2.94712281227111816 -0.534193158149719238
1.34390485286712646 3.5855107307434082 -0.225131124258041382
-1.48225164413452148 2.33426690101623535 0.428638190031051636
3.08431696891784668 3.90637588500976562 -0.47667229175567627
2.73380041122436523 4.04280710220336914 1.08722019195556641
2.13751363754272461 2.63835811614990234 -0.628258645534515381
0.98530280590057373 2.45971536636352539 1.156868577003479
-2.71794819831848145 4.09741020202636719 0.907736361026763916
1.47703635692596436 3.21216964721679688 1.17588698863983154
1.12460172176361084 1.44317460060119629 -0.634309828281402588
1.26004910469055176 4.1277618408203125 1.25677168369293213
2.86953163146972656 3.79532027244567871 1.07462012767791748
2.70484781265258789 4.15840673446655273 0.625661373138427734
0.00536730373278260231 4.16707849502563477 1.05152583122253418
0.536309182643890381 3.039276123046875 -0.27724871039390564
1.17303013801574707 4.23590517044067383 -0.105383872985839844
2.0502326488494873 2.76828503608703613 0.875650286674499512
0.889474153518676758 4.76256418228149414 1.23564469814300537
-1.24439692497253418 2.97269988059997559 0.39091530442237854
-0.125341668725013733 2.37348842620849609 -0.177148029208183289
2.15896773338317871 2.65639281272888184 -0.355614423751831055
1.36936390399932861 3.98183369636535645 1.24064493179321289
1.73220729827880859 3.56725382804870605 -0.164819002151489258
1.78863120079040527 3.60691213607788086 0.927265167236328125
1.43457579612731934 3.42701196670532227 -0.0121799511834979057
1.51763510704040527 4.1342620849609375 0.925696194171905518
-0.294921278953552246 2.18068194389343262 -0.0129172774031758308
0.256594419479370117 4.42700719833374023 1.08564841747283936
-1.20260322093963623 2.72209811210632324 0.351511001586914062
-0.308725744485855103 0.932642579078674316 -0.334785401821136475
-1.22630012035369873 1.94698858261108398 1.04950249195098877
1.95126283168792725 3.56453061103820801 0.206922203302383423
-1.05430853366851807 3.13619256019592285 0.531309306621551514
-0.305774420499801636 2.06432843208312988 -0.628522157669067383
2.9766545295715332 3.96401596069335938 -0.652767956256866455
1.24995791912078857 3.63462543487548828 0.64158552885055542
-0.236364677548408508 2.58463811874389648 1.22787106037139893
0.0946453884243965149 4.32241058349609375 0.834684371948242188
-0.221716329455375671 2.35803532600402832 1.20961415767669678
-0.317747652530670166 2.10849213600158691 -0.422150552272796631
1.52402567863464355 3.31435918807983398 0.742112994194030762
-1.40830910205841064 2.19115424156188965 0.802121341228485107
0.328664273023605347 1.28225648403167725 -0.347871661186218262
-0.0286045968532562256 2.46756625175476074 0.0380032584071159363
1.05084240436553955 2.94532561302185059 1.19683992862701416
-0.706824600696563721 3.89195728302001953 1.1941983699798584
0.675704717636108398 1.08165991306304932 -0.444660812616348267
-1.43247485160827637 2.22875308990478516 0.609933674335479736
2.95797824859619141 3.92567753791809082 0.916198372840881348
0.342896372079849243 2.35591673851013184 1.20294523239135742
1.53961443901062012 3.36712408065795898 0.267265290021896362
1.35375392436981201 2.14934635162353516 1.06182050704956055
1.8738255500793457 2.46995687484741211 -0.652533590793609619
-1.21911168098449707 2.72765564918518066 0.636596739292144775
-0.158182278275489807 2.31716752052307129 -0.381575882434844971
-0.117987729609012604 2.13031530380249023 1.18870329856872559
0.566918432712554932 2.23424005508422852 1.17257928848266602
-0.696984529495239258 1.55944168567657471 -0.0129323024302721024
1.8943326473236084 3.47689342498779297 0.704362392425537109
-2.99393081665039062 3.71909499168395996 1.48482692241668701
-0.712477207183837891 3.35245156288146973 1.08426094055175781
0.244610890746116638 2.67481017112731934 1.23268246650695801
2.63366532325744629 3.43652200698852539 -0.647328794002532959
-0.644348859786987305 1.64019978046417236 -0.262324690818786621
2.69458508491516113 4.20931100845336914 0.144616439938545227
2.67286849021911621 4.12558126449584961 0.913977265357971191
-0.432625919580459595 0.527288854122161865 -0.238002896308898926
-0.761421799659729004 1.23414254188537598 -0.481027454137802124
1.89533185958862305 3.54578733444213867 0.483080118894577026
1.12326169013977051 3.87591218948364258 1.25356030464172363
-1.39346861839294434 2.61952567100524902 0.400332659482955933
-1.13558626174926758 2.69617390632629395 1.12114989757537842
0.144958332180976868 0.716834783554077148 -0.332050740718841553
2.12093544006347656 2.64310812950134277 0.704540729522705078
-1.30453777313232422 2.53839540481567383 0.98336714506149292
0.609296023845672607 4.87676811218261719 0.456423372030258179
-1.30793464183807373 1.74777448177337646 0.991812467575073242
-1.34130227565765381 2.57126688957214355 0.587913095951080322
1.03086721897125244 2.80823469161987305 1.18770956993103027
0.886684656143188477 1.81637489795684814 -0.729480743408203125
-0.549039959907531738 2.49277639389038086 0.174238443374633789
1.60394346714019775 2.7489469051361084 1.11052775382995605
0.533722221851348877 1.51784741878509521 -0.728268980979919434
-0.688870251178741455 3.6382756233215332 0.495680779218673706
-2.93499898910522461 3.80414152145385742 1.38357806205749512
-0.137552693486213684 3.68253278732299805 1.29572165012359619
0.894077599048614502 1.35311079025268555 -0.649227678775787354
0.536675095558166504 3.89406466484069824 1.28711104393005371
1.29810202121734619 3.66481137275695801 -0.125909432768821716
-1.36499238014221191 2.54138040542602539 0.29204520583152771
0.714414596557617188 1.85504579544067383 -0.221965089440345764
-0.0350008644163608551 2.4703676700592041 -0.201938599348068237
-1.45708739757537842 1.9206392765045166 0.311727434396743774
0.690514445304870605 4.91837692260742188 0.576853632926940918
0.715410590171813965 3.21058940887451172 -0.193982958793640137
1.27053272724151611 3.86830925941467285 1.24193572998046875
2.41079258918762207 4.28305768966674805 0.91841965913772583
0.263660818338394165 4.54892301559448242 0.479630976915359497
-0.239043906331062317 4.12420892715454102 0.395762205123901367
-1.44421398639678955 2.47519183158874512 0.372409909963607788
-0.666403710842132568 3.17413425445556641 1.25221288204193115
-0.400779575109481812 2.03371286392211914 -0.238524779677391052
1.30334258079528809 3.57558965682983398 0.529500424861907959
2.30831193923950195 3.17191529273986816 -0.657609820365905762
0.764431893825531006 1.16599464416503906 -0.482092767953872681
0.972771346569061279 3.48037910461425781 1.24108552932739258
-1.52132570743560791 2.0399482250213623 0.490595817565917969
-0.438544005155563354 3.825592041015625 1.03786957263946533
-0.282513707876205444 0.775048017501831055 -0.42879939079284668
0.027846338227391243 4.32387971878051758 0.455902785062789917
0.997596383094787598 1.4476933479309082 -0.656876921653747559
1.20444679260253906 2.64903926849365234 1.15176296234130859
1.68690776824951172 3.51121973991394043 1.17720770835876465
-0.0667411163449287415 0.97767186164855957 -0.3486328125
-0.523992598056793213 1.84080743789672852 -0.303132027387619019
-0.6247367262840271 3.64687514305114746 0.963461637496948242
1.72185826301574707 3.54594159126281738 0.0966202244162559509
0.0836263746023178101 2.59704089164733887 -0.138452231884002686
-2.9934687614440918 3.65996146202087402 1.62598466873168945
1.94744777679443359 2.75403213500976562 -0.668854296207427979
-1.16823494434356689 2.91638779640197754 0.957047998905181885
1.29978621006011963 3.61695599555969238 0.381365925073623657
1.33707034587860107 3.2338862419128418 1.19149923324584961
0.901924371719360352 1.97250115871429443 1.10064387321472168
1.89805090427398682 3.58543252944946289 0.0552196353673934937
0.296541422605514526 0.399011164903640747 -0.0534160956740379333
0.0775114148855209351 0.955213844776153564 -0.347414255142211914
1.73319458961486816 3.66654276847839355 1.0468451976776123
0.0164694357663393021 4.2621912956237793 0.72206723690032959
0.0122743751853704453 0.733046531677246094 -0.337823450565338135
-1.25188624858856201 2.63398909568786621 0.202831774950027466
1.20520913600921631 4.70202398300170898 0.562619626522064209
0.796963751316070557 4.38828659057617188 1.29450273513793945
1.12775039672851562 3.40686845779418945 1.22294425964355469
0.054012596607208252 1.19812607765197754 -0.353435784578323364
1.41512906551361084 3.42268157005310059 0.328443139791488647
-0.840352416038513184 3.41588783264160156 0.97527998685836792
-0.309447944164276123 4.07203149795532227 0.786334574222564697
-0.376864582300186157 2.10497069358825684 1.1745610237121582
1.12730491161346436 3.92475008964538574 -0.125540673732757568
-0.0801071897149085999 4.14625263214111328 0.75154644250869751
-1.03835046291351318 3.13679647445678711 1.03681004047393799
-1.42695283889770508 2.43485856056213379 0.579800307750701904
0.671584963798522949 3.12219476699829102 -0.713881194591522217
2.81765532493591309 4.11973094940185547 -0.29771953821182251
-0.283547133207321167 3.8621213436126709 1.23079824447631836
-2.76558375358581543 3.96885347366333008 1.26481199264526367
1.84633135795593262 2.4337158203125 1.02931129932403564
1.19446110725402832 3.81628894805908203 -0.321002393960952759
-0.955958425998687744 2.10251855850219727 1.11839401721954346
1.6723707914352417 2.34791803359985352 -0.670360863208770752
-0.857659578323364258 3.48623847961425781 0.689734935760498047
2.43459749221801758 3.4555354118347168 -0.667285382747650146
1.14886832237243652 4.71936941146850586 0.810700833797454834
-0.285959124565124512 3.63956642150878906 1.28922724723815918
-0.461469948291778564 3.93710994720458984 1.22671008110046387
1.44258224964141846 3.84878015518188477 1.2265465259552002
2.80648303031921387 4.05754756927490234 0.812379539012908936
1.87263858318328857 3.25253462791442871 1.08277177810668945
1.17984461784362793 3.73881697654724121 0.677695035934448242
-0.525028467178344727 3.54454541206359863 1.22197461128234863
-0.7796439528465271 3.75963711738586426 0.298421025276184082
2.26481389999389648 2.84985566139221191 0.0101286778226494789
-0.421680033206939697 4.04178810119628906 0.339969933032989502
1.43373167514801025 4.26484155654907227 0.96503913402557373
-0.437751173973083496 3.29963278770446777 1.27045011520385742
0.0365759804844856262 3.15521526336669922 1.26717710494995117
-0.928576886653900146 2.30329227447509766 1.1487877368927002
-0.696213662624359131 1.54879021644592285 -0.177980735898017883
0.0299031343311071396 3.31660819053649902 1.27698612213134766
-0.567281424999237061 3.70106840133666992 1.06547200679779053
0.962070941925048828 4.52687644958496094 1.29248154163360596
-0.660011351108551025 4.37966632843017578 1.09479331970214844
2.61773419380187988 3.31543564796447754 -0.64023125171661377
-0.871252954006195068 3.11716675758361816 1.18542397022247314
0.272150307893753052 0.876732885837554932 -0.333411812782287598
0.0689664930105209351 3.56962347030639648 1.28982532024383545
-1.11043047904968262 2.92243504524230957 0.737450897693634033
0.567947089672088623 4.54581356048583984 1.30865919589996338
0.147661000490188599 2.08438825607299805 1.1828312873840332
-0.788538753986358643 2.08944487571716309 1.13619339466094971
1.2101670503616333 2.47902894020080566 1.13070940971374512
-0.828601717948913574 1.18911564350128174 -0.00140874611679464579
0.29304736852645874 3.29734373092651367 1.2695688009262085
0.794537603855133057 1.5776592493057251 -0.712109565734863281
0.482689619064331055 4.62656259536743164 1.25517010688781738
1.06420397758483887 4.41833639144897461 1.28242957592010498
-0.746641218662261963 1.35756182670593262 -0.381168156862258911
2.69374608993530273 4.19113445281982422 0.422045439481735229
0.769503355026245117 1.30158734321594238 -0.32227623462677002
-1.4525914192199707 1.92780494689941406 0.838181018829345703
1.11719703674316406 1.91472804546356201 1.05933332443237305
-1.21740806102752686 2.77177071571350098 0.515543818473815918
0.464594274759292603 1.69343984127044678 -0.318988889455795288
-0.757458269596099854 3.39928913116455078 0.841672301292419434
2.15588045120239258 2.87098979949951172 -0.642838835716247559
-2.62706637382507324 4.00708723068237305 1.42890691757202148
-1.15263831615447998 2.91494369506835938 0.514547049999237061
-0.323180645704269409 3.98272466659545898 1.23148596286773682
-0.548751652240753174 1.82850193977355957 -0.00649868277832865715
0.328690648078918457 2.1811070442199707 1.18603730201721191
0.16600152850151062 4.44415903091430664 0.573884844779968262
0.575761079788208008 4.42584753036499023 1.30558288097381592
-1.20716738700866699 3.07286286354064941 0.265750855207443237
-0.13279387354850769 2.29108405113220215 -0.621562957763671875
1.09787178039550781 3.9279632568359375 0.58168262243270874
1.5248568058013916 3.35374355316162109 0.0198659133166074753
0.337334692478179932 2.81613564491271973 -0.577176094055175781
1.16854619979858398 4.65250396728515625 0.997640311717987061
-1.17817008495330811 2.20412087440490723 1.09932506084442139
1.92394328117370605 3.25428128242492676 0.89829641580581665
0.282534986734390259 2.77664685249328613 -0.444081902503967285
0.120618514716625214 2.28404998779296875 1.2041325569152832
-0.513738036155700684 3.94907927513122559 0.828090429306030273
-0.464448362588882446 1.94913184642791748 -0.182421892881393433
0.224288105964660645 1.10912907123565674 -0.345578312873840332
0.190223187208175659 1.38024187088012695 -0.354832649230957031
0.814626932144165039 3.31131815910339355 -0.0196146052330732346
-1.04007875919342041 3.16666078567504883 0.318881362676620483
-0.587139725685119629 3.9638674259185791 0.464903652667999268
2.49889278411865234 4.32092571258544922 -0.29178321361541748
2.06951904296875 2.53829002380371094 -0.634501039981842041
-1.38176441192626953 2.09936809539794922 0.872980117797851562
0.534065902233123779 1.76442205905914307 -0.232024639844894409
1.89916121959686279 3.58752989768981934 -0.140254929661750793
1.87288689613342285 2.85673046112060547 1.08638298511505127
-0.64256519079208374 3.02349162101745605 1.24293065071105957
1.19906270503997803 2.3331599235534668 1.11393070220947266
-0.268043071031570435 2.1454005241394043 -0.536289751529693604
1.58213376998901367 2.3759000301361084 1.06115341186523438
-1.45889866352081299 1.99764156341552734 0.967942416667938232
-1.0931011438369751 2.48875117301940918 1.13514375686645508
-0.242298156023025513 2.98596739768981934 1.25580465793609619
0.487320631742477417 2.9329226016998291 0.107713699340820312
0.212527379393577576 3.00004458427429199 1.25461673736572266
0.55582815408706665 4.74214315414428711 1.0168616771697998
1.34646821022033691 1.8634113073348999 -0.668898165225982666
-0.100350268185138702 3.11640596389770508 1.26635897159576416
-1.35367834568023682 2.30982756614685059 1.02069747447967529
-1.5009688138961792 2.00572347640991211 0.653450071811676025
